# .PCD v0.7 - Point Cloud Data file format
VERSION 0.7
FIELDS x y z intensity
SIZE 4 4 4 4
TYPE F F F F
COUNT 1 1 1 1
WIDTH 1649
HEIGHT 1
VIEWPOINT 0 0 0 1 0 0 0
POINTS 1649
DATA ascii
14.556503 -2.1446908 -1.558882 5
14.347537 -1.4223146 -1.5783564 2
13.810074 -2.0347152 -1.5773746 6
13.553406 -1.34359 -1.5871058 2
12.958047 -1.9091812 -1.5725585 3
12.803341 -1.2692338 -1.5902214 3
12.220639 -1.8005348 -1.570461 6
12.176284 -1.2070718 -1.5989734 2
11.617279 -1.7116385 -1.5761408 20
11.545812 -1.1445712 -1.5984793 2
11.132013 -1.6401416 -1.590194 12
10.97506 -1.0879908 -1.5978411 2
10.643226 -1.5681258 -1.5969043 4
10.503285 -1.0412223 -1.6043192 2
10.209653 -1.5042452 -1.6054183 4
10.063424 -0.99761766 -1.609301 2
9.84935 -0.69934195 -1.6066213 2
9.5957022 -1.14106 -1.606892 3
9.4524527 -0.6711607 -1.609733 3
9.2203884 -1.0964302 -1.6106067 3
9.0835094 -0.64496434 -1.6122624 3
8.8845949 -1.0564997 -1.6162462 3
8.7738657 -0.62297845 -1.6205904 4
8.5296659 -1.0142938 -1.6135678 3
8.4175358 -0.59767759 -1.6156533 3
8.2337027 -0.97909963 -1.6174721 3
8.136075 -0.57769281 -1.620625 4
7.9536848 -0.94580179 -1.6204766 5
7.8315167 -0.556068 -1.6169046 4
7.6779261 -0.91301024 -1.6204532 5
7.5859551 -0.53863215 -1.6215229 5
7.4142113 -0.88165098 -1.6191845 8
19.716131 -2.9400547 4.6442771 24
0 -0 0 0
19.69363 -2.9366992 4.4929442 17
0 -0 0 0
19.813013 -2.9545014 4.3737249 6
0 -0 0 0
0 -0 0 0
43.33305 -4.3721228 9.033371 10
0 -0 0 0
43.019993 -4.3405366 8.6543264 18
0 -0 0 0
42.926544 -4.3311081 8.323267 18
0 -0 0 0
42.869732 -4.325376 8.0012722 16
45.854588 -6.8378015 8.4423122 4
42.861473 -4.3245425 7.6896143 16
42.956596 -3.1254458 7.5332847 14
42.636944 -5.1455984 7.357523 18
42.527897 -3.0942545 7.1522789 14
42.212639 -5.0943918 6.9797091 16
42.434765 -3.0874782 6.8321719 20
42.110817 -5.0821033 6.659708 16
42.469387 -3.0899973 6.5337358 11
42.195133 -5.092279 6.3699331 14
42.549286 -3.0958107 6.2420955 6
42.061264 -5.0761232 6.0482068 29
43.089497 -3.1351154 6.0141826 10
41.944675 -5.0620527 5.7313585 22
43.082787 -3.1346271 5.7067246 13
42.495342 -5.1285095 5.5031233 8
43.141193 -3.1388769 5.4080596 9
0 -0 0 0
43.843895 -6.5379682 5.2288408 16
43.268551 -4.3656149 4.9761529 10
43.827744 -6.5355597 4.9141164 10
43.246597 -4.3634 4.6670437 20
44.254055 -6.5991311 4.6465631 11
42.984863 -4.3369923 4.3345251 12
44.753605 -6.6736236 4.3805628 16
42.910851 -4.3295245 4.023737 16
44.680256 -6.6626859 4.055882 20
42.961487 -4.3346338 3.7251971 21
44.573067 -6.6467023 3.729809 20
43.367138 -4.3755622 3.4545867 23
45.063194 -6.719789 3.4513688 11
43.501175 -4.3890862 3.1588736 0
0 -0 0 0
47.568825 -4.7994947 3.1195133 17
43.047997 -3.1320958 2.6652312 255
67.066841 -8.0938969 3.9352198 5
43.045555 -3.1319182 2.363338 255
69.702057 -8.4119253 3.599189 6
43.009132 -3.1292682 2.0600812 255
0 -0 0 0
43.014431 -3.1296537 1.7592415 255
0 -0 0 0
43.017635 -3.1298869 1.4584277 255
0 -0 0 0
43.042679 -3.1317091 1.1582985 255
0 -0 0 0
43.01379 -3.129607 0.85685724 255
195.16948 -23.553839 3.2206655 30
43.02668 -3.1305449 0.55644339 255
195.1076 -23.546373 1.8500992 64
95.051315 -14.173981 0.5698961 4
0 -0 0 0
94.590057 -14.105197 -0.099302143 3
65.574394 -6.6161809 -0.29804653 29
0 -0 -0 0
65.590645 -6.6178207 -0.75748664 21
54.111549 -8.0690727 -0.81927025 1
65.687256 -6.6275682 -1.218719 7
53.90287 -8.0379553 -1.1959726 10
0 -0 -0 0
50.607044 -7.546484 -1.4795909 0
38.961636 -3.9310656 -1.268932 255
0 -0 -0 0
38.932007 -3.9280763 -1.5409625 255
0 -0 -0 0
31.995018 -3.228163 -1.4908662 0
30.792263 -2.2403905 -1.5391551 0
29.321253 -3.5386071 -1.5755348 1
26.961098 -1.9616416 -1.5365436 0
25.726206 -3.1047423 -1.5635146 0
24.071249 -1.7513814 -1.5406413 0
23.317629 -2.8140655 -1.5814492 0
21.803589 -1.5863905 -1.5485169 0
21.12006 -2.5488541 -1.5813755 1
20.058142 -1.4593949 -1.5654563 0
19.592648 -2.3645198 -1.6053495 2
18.349382 -1.3350685 -1.5611337 0
17.745592 -2.1416097 -1.5794485 0
17.102568 -1.2443526 -1.5754707 1
16.394085 -1.9785044 -1.5751868 2
15.896213 -1.1565802 -1.5764059 1
15.241093 -1.8393565 -1.5724168 2
14.509461 -2.1636398 -1.5542462 6
14.368771 -1.4497486 -1.5809681 2
13.782914 -2.0552976 -1.5746797 6
13.543134 -1.3664454 -1.5861799 2
12.98219 -1.9358944 -1.5758963 3
12.801106 -1.2915779 -1.5902214 2
12.264575 -1.8288841 -1.576515 6
12.142588 -1.2251362 -1.5948268 2
11.618196 -1.7324965 -1.576673 20
11.57928 -1.1683007 -1.6033926 2
11.097795 -1.6548948 -1.585716 12
10.996776 -1.1095285 -1.6012824 2
10.671781 -1.5913678 -1.6016027 4
10.52506 -1.0619344 -1.6079258 2
10.210921 -1.5226449 -1.6060332 3
10.053807 -1.014387 -1.6080438 2
9.8599272 -0.71739084 -1.6085484 2
9.5897789 -1.1573331 -1.6062359 3
9.4551992 -0.68794352 -1.6104028 3
9.2380247 -1.1148821 -1.6140249 4
9.086298 -0.66110289 -1.6129597 3
8.8671055 -1.0701181 -1.613402 3
8.7649174 -0.63771987 -1.6191409 4
8.5552025 -1.0324764 -1.6187372 3
8.4203978 -0.61265326 -1.6164054 3
8.2475719 -0.99535024 -1.6205354 3
8.1624441 -0.593885 -1.6260816 4
7.9559135 -0.96015173 -1.6212697 5
7.8305345 -0.56973577 -1.6169046 4
7.6685476 -0.92547125 -1.6188123 5
7.5850034 -0.55187136 -1.6215229 7
7.4126616 -0.8945899 -1.6191845 10
19.726372 -2.9768133 4.6479073 24
0 -0 0 0
19.723192 -2.9763334 4.5008683 17
0 -0 0 0
19.757587 -2.9815238 4.3626328 8
0 -0 0 0
0 -0 0 0
0 -0 0 0
0 -0 0 0
43.074772 -4.4220815 8.6668863 7
0 -0 0 0
43.012688 -4.4157076 8.3414516 8
0 -0 0 0
42.948177 -4.4090853 8.0173388 16
45.819221 -6.9143615 8.4380121 6
42.940033 -4.4082489 7.7050781 16
43.163254 -3.2162836 7.5704994 13
42.580925 -5.214313 7.3494177 18
42.699459 -3.1817241 7.182055 14
42.203674 -5.1681161 6.9797091 16
42.468689 -3.1645286 6.8385139 20
41.941055 -5.1359568 6.6342697 18
42.590092 -3.1735747 6.5531487 11
42.036968 -5.1477017 6.3474035 19
42.528023 -3.1689498 6.2397785 14
42.020889 -5.1457329 6.043684 18
43.072105 -3.2094917 6.0125284 12
42.073467 -5.1521711 5.7501779 22
43.128658 -3.2137055 5.7135353 13
42.569019 -5.2128549 5.5138354 8
43.115856 -3.2127519 5.4055786 10
42.905663 -5.2540789 5.251544 15
44.024876 -6.6435852 5.251801 10
43.185745 -4.4334741 4.9675126 8
43.989227 -6.6382055 4.9335155 12
43.250782 -4.4401507 4.6683249 20
44.124435 -6.6586089 4.6341677 11
42.90596 -4.4047508 4.3273377 15
44.572594 -6.7262387 4.3639884 19
43.045845 -4.4191117 4.0371132 18
44.751274 -6.7532024 4.0633936 12
42.882496 -4.4023423 3.7190087 24
44.56139 -6.7245479 3.729809 18
43.537926 -4.4696288 3.4688084 12
0 -0 0 0
43.866508 -4.5033617 3.1859686 0
0 -0 0 0
47.608017 -4.8874669 3.1226387 21
43.042458 -3.2072825 2.6652312 255
67.254745 -8.2357836 3.9470835 4
43.024086 -3.2059135 2.3624632 255
69.82206 -8.5501671 3.6061516 8
43.019535 -3.2055745 2.0608447 255
0 -0 0 0
43.020855 -3.2056727 1.7597305 255
0 -0 0 0
43.000145 -3.2041297 1.4580222 255
0 -0 0 0
43.029167 -3.2062922 1.1580838 255
0 -0 0 0
43.020218 -3.2056253 0.85709554 255
195.06453 -23.886927 3.2196171 14
43.021145 -3.2056944 0.55644339 255
195.04234 -23.884212 1.8498733 76
95.030373 -14.340583 0.56991988 12
0 -0 0 0
95.047806 -14.343213 -0.099808849 13
65.598549 -6.734386 -0.29820934 44
0 -0 -0 0
65.395958 -6.7135873 -0.75537258 26
53.883812 -8.1313505 -0.81603605 2
65.241928 -6.6977744 -1.210672 6
53.884792 -8.1314983 -1.1958847 19
0 -0 -0 0
52.368938 -7.9027481 -1.5315044 0
38.94278 -3.9978886 -1.2685434 255
0 -0 -0 0
38.563274 -3.9589283 -1.526639 2
0 -0 -0 0
32.064854 -3.2917967 -1.4943858 0
30.688702 -2.2867498 -1.534176 1
29.330883 -3.5917585 -1.576387 1
26.881964 -2.003093 -1.5322306 0
25.784153 -3.1574383 -1.5673692 0
23.940765 -1.7839315 -1.532487 0
23.284945 -2.8513939 -1.579568 0
21.824657 -1.6262511 -1.5502126 0
21.087858 -2.5823462 -1.5792998 1
20.047607 -1.4938353 -1.5648353 0
19.612232 -2.4016461 -1.6072954 1
18.390741 -1.3703748 -1.5648538 0
17.718092 -2.1696963 -1.577336 0
17.056677 -1.2709678 -1.5714452 1
16.414318 -2.0100408 -1.5774659 2
15.914014 -1.1858231 -1.5783743 1
15.222057 -1.8640405 -1.5707866 3
14.505659 -2.1889803 -1.5542462 6
14.389949 -1.4772806 -1.5835799 1
13.798952 -2.0823345 -1.5769253 6
13.532823 -1.3892875 -1.5852538 3
13.006278 -1.9627157 -1.579234 3
12.80278 -1.3143409 -1.5907122 2
12.308445 -1.857409 -1.5825688 4
12.112811 -1.2435082 -1.5911987 3
11.622992 -1.7539705 -1.5777371 13
11.533861 -1.184073 -1.5973874 2
11.067473 -1.6701399 -1.581798 19
11.01451 -1.1307561 -1.6041499 2
10.653336 -1.6076443 -1.5992535 4
10.546792 -1.0827398 -1.6115324 2
10.188705 -1.5375291 -1.6029589 3
10.032372 -1.0299293 -1.6049006 2
9.8744078 -0.73578548 -1.611118 3
9.5916586 -1.1745613 -1.606892 3
9.4618483 -0.70504385 -1.6117425 3
9.2125912 -1.128142 -1.6099231 4
9.0969124 -0.6778509 -1.6150517 3
8.8535013 -1.0841691 -1.6112689 3
8.7559452 -0.65244395 -1.6176914 3
8.5846043 -1.0512409 -1.6246451 4
8.4428215 -0.62911171 -1.6209184 3
8.2653055 -1.0121408 -1.6243647 4
8.1261816 -0.60551745 -1.6190659 4
7.962008 -0.97499996 -1.6228561 4
7.8334351 -0.58370364 -1.6177115 5
7.670805 -0.93934023 -1.6196327 5
7.5762253 -0.56453782 -1.6198547 7
7.4227281 -0.90896159 -1.6217277 10
19.740402 -3.0141776 4.6524453 20
0 -0 0 0
19.752682 -3.0160527 4.5087924 21
0 -0 0 0
19.852797 -3.0313392 4.3848171 8
0 -0 0 0
0 -0 0 0
0 -0 0 0
0 -0 0 0
0 -0 0 0
0 -0 0 0
43.231483 -4.514432 8.3853989 8
0 -0 0 0
43.030384 -4.493432 8.0341358 19
45.830429 -6.9978843 8.4423122 6
42.740364 -4.4631472 7.6706367 16
43.397232 -3.309891 7.6125388 13
42.524818 -5.2827907 7.3413129 17
42.870846 -3.2697439 7.2118316 6
42.194592 -5.2417674 6.9797091 21
42.50642 -3.2419493 6.84549 16
42.041832 -5.2227902 6.6516418 18
42.714581 -3.2578256 6.5731683 13
41.965111 -5.2132592 6.3379169 19
42.625038 -3.2509961 6.2548351 14
42.110081 -5.2312689 6.0578165 18
43.244202 -3.2982197 6.0373454 12
42.202084 -5.2426982 5.7689972 19
43.174385 -3.2928948 5.720346 4
42.642536 -5.2974153 5.5245466 16
43.315983 -3.3036942 5.4313831 10
42.900372 -5.3294454 5.2520266 15
44.158512 -6.7425981 5.2691383 15
43.06332 -4.4968715 4.9543257 9
43.993298 -6.7173715 4.9352794 15
43.211319 -4.5123262 4.6649084 15
44.053753 -6.7266026 4.6279702 14
42.727993 -4.4618549 4.3101673 16
44.572598 -6.8058248 4.3651447 17
43.045986 -4.4950614 4.0378561 17
44.644905 -6.8168659 4.0548091 16
42.819256 -4.471385 3.7141953 14
44.600811 -6.810133 3.734098 14
43.708527 -4.5642471 3.4830298 24
0 -0 0 0
43.656212 -4.558784 3.171268 0
0 -0 0 0
47.627201 -4.973453 3.1244617 14
43.040779 -3.2827046 2.665478 255
67.252159 -8.3546295 3.9477813 3
43.030376 -3.2819111 2.3631194 255
69.862534 -8.6789122 3.6090186 10
43.005909 -3.280045 2.060463 255
0 -0 0 0
43.019184 -3.2810574 1.7598935 255
0 -0 0 0
42.994488 -3.2791741 1.4580222 255
0 -0 0 0
43.007557 -3.2801709 1.1576545 255
0 -0 0 0
43.018547 -3.281009 0.85717505 255
0 -0 0 0
43.007507 -3.2801671 0.55634022 255
0 -0 0 0
95.032875 -14.510644 0.57008588 20
81.703499 -8.5318584 0.20089325 29
94.93959 -14.496402 -0.099721633 22
65.650352 -6.855514 -0.29849875 37
94.984047 -14.503189 -0.76927388 11
65.308556 -6.8198218 -0.75449938 12
53.972336 -8.2410784 -0.81759328 1
65.186386 -6.8070645 -1.20986 10
53.823078 -8.2182884 -1.1948316 17
0 -0 -0 0
52.05862 -7.9488721 -1.5228328 0
38.955624 -4.0679269 -1.269191 255
0 -0 -0 0
38.54438 -4.0249829 -1.5261667 4
0 -0 -0 0
0 -0 -0 0
30.915707 -2.3579297 -1.5457276 1
29.225475 -3.6306345 -1.5710601 1
27.029741 -2.0615485 -1.5408566 0
25.691433 -3.191606 -1.5620693 0
24.152552 -1.8421063 -1.5462472 0
23.268053 -2.8905535 -1.5787618 0
21.821787 -1.6643398 -1.5502126 0
21.107069 -2.6220977 -1.5810789 1
20.029066 -1.5276096 -1.5635937 1
19.572405 -2.4314487 -1.6043767 1
18.412167 -1.4042892 -1.5668831 0
17.714279 -2.2006168 -1.577336 0
17.0028 -1.2967974 -1.5666877 1
16.371271 -2.0337772 -1.5736676 2
15.935736 -1.2154127 -1.5807365 1
15.285912 -1.8989446 -1.5777153 3
14.50575 -2.2148943 -1.5546676 6
14.391303 -1.5028065 -1.5840151 1
13.814944 -2.1094148 -1.5791711 5
13.534328 -1.4133173 -1.5857168 3
12.998908 -1.9848135 -1.5787573 3
12.808363 -1.3375087 -1.5916934 2
12.316952 -1.8806852 -1.5840822 4
12.098787 -1.2634114 -1.5896438 3
11.63167 -1.7760489 -1.5793335 13
11.492365 -1.200086 -1.5919281 3
11.056711 -1.6882581 -1.5806785 19
11.032207 -1.1520342 -1.6070176 2
10.634868 -1.6238463 -1.5969043 8
10.505554 -1.0970386 -1.6055214 2
10.166471 -1.5523264 -1.5998845 4
10.014844 -1.0457964 -1.602386 2
9.8613005 -0.75211781 -1.6091909 3
9.5974255 -1.192273 -1.6082044 3
9.4645357 -0.72185671 -1.6124125 3
9.1910534 -1.1417899 -1.6065049 3
9.1114244 -0.69492507 -1.6178411 2
8.8711262 -1.102046 -1.6148241 3
8.7430258 -0.66682744 -1.615517 3
8.5671511 -1.0642836 -1.6216912 4
8.4652147 -0.64563888 -1.6254314 3
8.247942 -1.0246288 -1.6213014 4
8.0899057 -0.61701417 -1.6120503 4
7.9486222 -0.98744482 -1.6204766 4
7.8363104 -0.59767252 -1.6185184 5
7.6769238 -0.95369214 -1.6212738 9
7.5713277 -0.57746243 -1.6190205 5
7.4327683 -0.92336106 -1.624271 6
15.62331 -2.4134467 3.6831105 1
0 -0 0 0
19.832226 -3.0636287 4.5281625 21
0 -0 0 0
19.951752 -3.0820925 4.4078546 2
0 -0 0 0
0 -0 0 0
0 -0 0 0
0 -0 0 0
0 -0 0 0
0 -0 0 0
43.450062 -4.6139321 8.4293442 19
0 -0 0 0
43.042027 -4.5706029 8.0377874 19
0 -0 0 0
42.544552 -4.5177765 7.6368976 8
0 -0 0 0
0 -0 0 0
42.959465 -3.3519275 7.2277122 6
42.146214 -5.3104682 6.9732294 21
42.540077 -3.3192043 6.8518319 16
42.146347 -5.3104854 6.6696348 12
42.677296 -3.3299112 6.568315 13
41.893147 -5.2785821 6.3284311 16
42.725838 -3.3336985 6.2704711 11
42.199108 -5.3171334 6.0719495 24
43.416122 -3.3875582 6.0621634 9
42.1968 -5.3168426 5.7695346 19
0 -0 0 0
42.609604 -5.3688564 5.5214858 16
0 -0 0 0
42.894939 -5.4048085 5.2525086 19
44.056381 -6.8057108 5.2583609 12
42.861759 -4.5514607 4.9320436 11
43.981506 -6.7941442 4.9352794 13
43.041225 -4.570518 4.6474004 16
44.034084 -6.8022666 4.6271439 18
42.779503 -4.5427265 4.3161573 17
44.576389 -6.8860402 4.3666868 21
43.145012 -4.5815392 4.0478888 25
44.640812 -6.8959918 4.0555243 19
42.997643 -4.5658903 3.7303543 7
44.746445 -6.9123101 3.7472949 6
43.466545 -4.6156826 3.4643838 17
0 -0 0 0
47.274296 -5.0200253 3.4347239 6
0 -0 0 0
47.578762 -5.0523562 3.1218574 12
43.015083 -3.356267 2.6642451 255
0 -0 0 0
43.020599 -3.3566973 2.3629005 255
69.73233 -8.7863493 3.6030798 9
42.996136 -3.3547888 2.060272 255
0 -0 0 0
43.005424 -3.3555133 1.7595675 255
0 -0 0 0
43.004639 -3.3554523 1.4585629 255
185.33272 -23.352123 5.6648784 3
43.013729 -3.3561614 1.1579765 255
0 -0 0 0
43.012756 -3.3560855 0.85717505 255
0 -0 0 0
43.00172 -3.3552244 0.55634022 255
0 -0 0 0
95.011353 -14.677096 0.57010961 10
81.688484 -8.6744442 0.20089325 42
95.024834 -14.679179 -0.099837922 18
65.765572 -6.9836006 -0.2990776 9
94.998123 -14.675053 -0.76959413 10
65.51133 -6.9566035 -0.75698113 9
0 -0 -0 0
65.277802 -6.9318051 -1.2117794 7
52.247555 -8.0710611 -1.1601671 7
0 -0 -0 0
51.084469 -7.8913908 -1.4947371 1
38.960388 -4.137177 -1.2695798 105
0 -0 -0 0
38.902954 -4.1310782 -1.5406476 35
0 -0 -0 0
0 -0 -0 0
30.975269 -2.4168563 -1.5489142 1
29.234943 -3.6836345 -1.5719124 1
26.958418 -2.10344 -1.5369976 0
25.765051 -3.2464244 -1.5668875 0
24.320433 -1.8976103 -1.5572046 0
23.136263 -2.915194 -1.5701627 0
21.723379 -1.6949743 -1.5434295 0
21.05497 -2.6529489 -1.5775207 0
20.046249 -1.5641156 -1.5651457 1
19.603729 -2.4700911 -1.6072954 1
18.501081 -1.4435533 -1.5746617 1
17.706457 -2.2310328 -1.5769839 0
17.048164 -1.330189 -1.5710793 1
16.379547 -2.0638406 -1.574807 2
15.953433 -1.2447722 -1.5827051 1
15.326 -1.9310926 -1.5821985 5
14.490069 -2.2383866 -1.5534034 6
14.396566 -1.5287615 -1.5848857 2
13.775888 -2.128062 -1.5751288 5
13.539742 -1.437776 -1.5866429 2
12.991498 -2.0068915 -1.5782803 3
12.782323 -1.3573462 -1.5887494 2
12.325416 -1.9039968 -1.5855956 3
12.088675 -1.2836882 -1.5886072 3
11.640306 -1.7981629 -1.5809299 5
11.494194 -1.2205606 -1.5924741 3
11.049834 -1.7069484 -1.5801188 17
11.006559 -1.168779 -1.6035764 2
10.616376 -1.639989 -1.5945549 8
10.468231 -1.1116142 -1.6001116 3
10.15984 -1.5694646 -1.5992696 4
10.005146 -1.0624396 -1.6011287 2
9.8520994 -0.76871353 -1.6079061 3
9.5953293 -1.2090219 -1.6082044 3
9.4711246 -0.7389878 -1.6137521 3
9.1694956 -1.1553663 -1.6030869 3
9.0984182 -0.70990729 -1.615749 2
8.892621 -1.1204799 -1.6190904 3
8.734005 -0.68147379 -1.6140674 3
8.5535784 -1.0777602 -1.6194758 3
8.4640751 -0.66041249 -1.6254314 3
8.2344551 -1.0375503 -1.6190038 4
8.1161966 -0.63326913 -1.617507 4
7.939106 -1.0003359 -1.6188902 4
7.8391614 -0.61165333 -1.6193252 3
7.6519423 -0.96415299 -1.6163509 9
7.5586081 -0.58976305 -1.6165181 5
7.3962388 -0.93193412 -1.6166413 6
15.603673 -2.4383259 3.6794798 6
0 -0 0 0
19.911655 -3.1115177 4.5475321 18
0 -0 0 0
19.92317 -3.1133173 4.4027348 2
0 -0 0 0
0 -0 0 0
0 -0 0 0
0 -0 0 0
0 -0 0 0
0 -0 0 0
43.430222 -4.6885548 8.4270716 19
0 -0 0 0
43.053528 -4.6478882 8.0414391 3
0 -0 0 0
42.497444 -4.5878553 7.6298685 8
0 -0 0 0
0 -0 0 0
43.051853 -3.4348028 7.2442546 12
42.101635 -5.3795743 6.9673982 21
42.577515 -3.3969588 6.858808 15
42.050774 -5.373075 6.6559849 12
42.643826 -3.4022491 6.5640683 12
41.958416 -5.3612747 6.3396959 16
42.601589 -3.3988795 6.2530985 11
42.2094 -5.3933439 6.0747762 24
43.524666 -3.4725254 6.0781574 9
42.19138 -5.3910413 5.7700729 14
43.913689 -3.5035627 5.8198853 4
42.580486 -5.4407597 5.5189357 11
0 -0 0 0
42.885433 -5.4797244 5.2525086 19
44.005173 -6.8765192 5.253675 13
42.739162 -4.6139507 4.9188566 10
43.989208 -6.8740244 4.9374838 16
42.922455 -4.633738 4.6354432 17
44.092888 -6.8902259 4.6345806 19
42.767544 -4.6170144 4.3157578 12
44.572163 -6.9651198 4.3674579 15
43.216133 -4.6654425 4.0553198 17
44.577526 -6.9659581 4.0508742 17
43.385818 -4.6837606 3.7647352 16
45.037571 -7.037848 3.7726994 4
42.994576 -4.6415243 3.4274077 10
0 -0 0 0
47.082993 -5.0828934 3.4214644 8
0 -0 0 0
47.482559 -5.1260285 3.1161277 11
43.009151 -3.4313962 2.6642451 255
0 -0 0 0
43.026615 -3.4327893 2.3635566 255
69.899155 -8.931428 3.6125002 8
43.034019 -3.4333799 2.0623717 255
0 -0 0 0
43.011444 -3.4315789 1.7600565 255
0 -0 0 0
42.998711 -3.430563 1.4585629 255
0 -0 0 0
43.007801 -3.4312882 1.1579765 255
185.4691 -23.698481 4.3665633 3
43.006824 -3.4312105 0.85717505 255
0 -0 0 0
43.003765 -3.4309661 0.55644339 255
0 -0 0 0
154.40736 -24.128645 0.92676318 16
81.665245 -8.8162565 0.20087369 58
0 -0 -0 0
65.876556 -7.1117716 -0.29963833 1
101.45348 -15.853744 -0.8221131 11
65.960365 -7.1208196 -0.76231229 6
0 -0 -0 0
65.472359 -7.0681362 -1.2156183 2
51.348328 -8.0240059 -1.1405091 5
0 -0 -0 0
50.813828 -7.9404812 -1.4872218 1
38.949127 -4.2047935 -1.2694502 105
0 -0 -0 0
38.947334 -4.2045999 -1.5426939 136
0 -0 -0 0
0 -0 -0 0
30.915245 -2.4665089 -1.5461259 1
29.212618 -3.7326684 -1.5710601 1
26.966644 -2.1514778 -1.5376786 0
25.822708 -3.2995198 -1.570742 0
24.177807 -1.9289762 -1.548286 0
23.186556 -2.9626832 -1.5739248 0
21.974937 -1.7532248 -1.5615177 0
21.08987 -2.694777 -1.5804858 0
19.920252 -1.589296 -1.5555228 0
19.59543 -2.5038238 -1.6069711 2
18.36742 -1.4654065 -1.5635011 0
17.734152 -2.2659972 -1.5798006 0
17.077579 -1.3624992 -1.5740069 1
16.332472 -2.0868962 -1.570629 2
15.947266 -1.2723196 -1.5823115 1
15.21998 -1.9447466 -1.5716016 4
14.474346 -2.2618504 -1.552139 6
14.405734 -1.5551859 -1.5861917 2
13.736806 -2.1465976 -1.5710865 5
13.501658 -1.4575856 -1.5824759 2
12.968353 -2.0265145 -1.5758963 3
12.760199 -1.3775405 -1.5862962 2
12.306389 -1.923072 -1.5835776 3
12.110076 -1.3073558 -1.5917171 3
11.656733 -1.8215526 -1.5835905 5
11.499923 -1.2414861 -1.5935658 2
11.046835 -1.7262464 -1.5801188 17
10.980886 -1.1854529 -1.6001352 2
10.597857 -1.6560864 -1.5922056 18
10.462342 -1.129473 -1.5995106 3
10.153176 -1.5865978 -1.5986547 4
9.9954214 -1.079066 -1.5998715 2
9.8507404 -0.78592092 -1.6079061 3
9.5971165 -1.2262802 -1.6088604 3
9.4816113 -0.75647074 -1.6157618 3
9.151825 -1.1693827 -1.6003524 3
9.0853844 -0.72485852 -1.613657 3
8.8633194 -1.1325185 -1.6141131 3
8.744565 -0.697667 -1.6162418 3
8.5594816 -1.0936955 -1.6209526 3
8.4668245 -0.67550802 -1.6261835 2
8.2404184 -1.0529269 -1.6205354 4
8.1463642 -0.64994079 -1.6237431 3
7.9490132 -1.0156924 -1.6212697 4
7.8497968 -0.62627977 -1.6217456 3
7.626946 -0.97453988 -1.6114279 7
7.5458665 -0.60203135 -1.6140158 8
7.3635788 -0.94088793 -1.6098595 7
15.541676 -2.4564331 3.6658657 6
0 -0 0 0
19.948589 -3.152966 4.5572176 18
0 -0 0 0
19.898407 -3.1450346 4.398469 1
0 -0 0 0
0 -0 0 0
0 -0 0 0
0 -0 0 0
0 -0 0 0
0 -0 0 0
0 -0 0 0
0 -0 0 0
0 -0 0 0
0 -0 0 0
42.454144 -4.6581554 7.6235428 17
42.990509 -3.5054293 7.544311 16
43.446667 -5.6285205 7.505444 7
42.923904 -3.4999983 7.223742 12
42.127411 -5.4576106 6.9732294 21
42.610886 -3.4744747 6.86515 15
41.959038 -5.4357982 6.6429558 16
42.67329 -3.4795635 6.5695286 12
42.027458 -5.4446621 6.3515539 20
42.481194 -3.4638996 6.2363043 18
42.219559 -5.4695482 6.0776024 16
43.636997 -3.5581436 6.0947022 12
42.217285 -5.4692535 5.7749119 14
43.792885 -3.5708547 5.8046923 4
42.448956 -5.4992666 5.5031233 11
0 -0 0 0
42.875805 -5.554565 5.2525086 19
43.985256 -6.9520717 5.252738 15
42.565132 -4.6703329 4.8997574 18
43.90646 -6.9396172 4.9295473 13
42.81152 -4.6973672 4.6243405 19
44.190826 -6.9845634 4.6461496 18
42.834595 -4.6998992 4.3233447 9
44.673977 -7.0609269 4.3786354 16
43.401917 -4.7621469 4.0735273 5
44.604652 -7.0499697 4.0544515 19
43.337963 -4.7551298 3.7612972 14
45.005531 -7.1133308 3.7710497 3
42.966591 -4.7143822 3.4258275 13
0 -0 0 0
43.711052 -4.7960658 3.1770332 6
0 -0 0 0
47.358475 -5.1962681 3.1085751 14
42.987183 -3.5051579 2.6632593 255
0 -0 0 0
43.020557 -3.5078795 2.3635566 255
0 -0 0 0
43.023979 -3.5081584 2.0621808 255
0 -0 0 0
43.009373 -3.5069673 1.7602196 255
0 -0 0 0
42.968754 -3.5036554 1.4577519 255
0 -0 0 0
43.00573 -3.5066702 1.1580838 255
0 -0 0 0
42.972874 -3.5039911 0.85661888 255
0 -0 0 0
42.989738 -3.5053663 0.55634022 255
0 -0 0 0
148.78242 -23.515745 0.89324689 22
81.733238 -8.9679375 0.2010791 50
101.57108 -16.053776 -0.10677399 13
81.736618 -8.9683084 -0.37184817 46
101.57578 -16.054518 -0.82332993 10
81.712181 -8.9656277 -0.9445374 12
0 -0 -0 0
0 -0 -0 0
50.931347 -8.0499325 -1.1315578 8
0 -0 -0 0
47.577259 -7.5198045 -1.3928758 0
38.961601 -4.2749462 -1.270098 162
41.268803 -6.5227237 -1.499613 0
38.931992 -4.2716975 -1.542379 255
0 -0 -0 0
0 -0 -0 0
30.835241 -2.5142934 -1.5423417 1
29.150602 -3.7764637 -1.568077 1
26.97081 -2.1991892 -1.5381325 0
25.765438 -3.3379152 -1.5676101 0
24.249996 -1.9773351 -1.5531274 0
23.137815 -2.9975066 -1.5709689 0
21.880375 -1.7841172 -1.5550172 0
21.160297 -2.7413189 -1.5861199 1
19.913473 -1.6237367 -1.5552124 0
19.666153 -2.5477524 -1.6131331 1
18.424423 -1.5023202 -1.5685741 0
17.627434 -2.2836359 -1.5706464 0
17.011654 -1.3871236 -1.5681515 1
16.328804 -2.1153984 -1.570629 2
15.905346 -1.2969157 -1.5783743 1
15.263918 -1.9774423 -1.5764925 6
14.470377 -2.2871094 -1.552139 6
14.418808 -1.5820611 -1.5879327 2
13.697705 -2.1649852 -1.5670444 5
13.467499 -1.4776815 -1.5787721 2
12.945183 -2.0460455 -1.5735122 3
12.777505 -1.401974 -1.5887494 2
12.287336 -1.9420699 -1.5815598 5
12.131431 -1.3310853 -1.5948268 4
11.677031 -1.8456082 -1.5867833 3
11.53319 -1.2654451 -1.5984793 2
11.043805 -1.745524 -1.5801188 18
10.990605 -1.2059116 -1.6018559 2
10.575411 -1.6714922 -1.5892692 18
10.456424 -1.1473001 -1.5989095 2
10.158201 -1.6055503 -1.5998845 4
10.009229 -1.098233 -1.602386 2
9.8532896 -0.80343336 -1.6085484 3
9.5675707 -1.2394798 -1.6042675 3
9.4920683 -0.77397949 -1.6177715 2
9.1654053 -1.1873792 -1.6030869 3
9.0801802 -0.74039435 -1.6129597 3
8.8340044 -1.1444463 -1.6091356 3
8.7550974 -0.71388716 -1.6184161 3
8.5653582 -1.1096431 -1.6224296 5
8.4225607 -0.68677229 -1.6179098 2
8.246356 -1.0683163 -1.6220672 4
8.1373978 -0.66352022 -1.6221842 3
7.9588928 -1.0310755 -1.6236492 5
7.8604059 -0.64093441 -1.6241661 4
7.6368814 -0.98935878 -1.6138895 7
7.5681992 -0.61710799 -1.6190205 8
7.3890629 -0.95725387 -1.6157936 7
15.479664 -2.4743314 3.6522515 19
0 -0 0 0
19.985439 -3.1945527 4.5669022 17
0 -0 0 0
19.935335 -3.1865439 4.4078546 1
0 -0 0 0
0 -0 0 0
0 -0 0 0
0 -0 0 0
0 -0 0 0
0 -0 0 0
0 -0 0 0
0 -0 0 0
0 -0 0 0
0 -0 0 0
42.426384 -4.730063 7.620028 17
42.984329 -3.5804567 7.544311 16
43.198326 -5.6730261 7.464242 6
42.795864 -3.5647581 7.203229 14
42.153046 -5.5357542 6.9790611 23
42.644115 -3.5521183 6.8714924 10
41.969074 -5.5115943 6.6460581 16
42.706554 -3.5573189 6.5755949 12
42.159084 -5.5365477 6.3728971 20
42.502693 -3.540338 6.2403579 18
42.284542 -5.5530233 6.0883436 16
0 -0 0 0
42.243042 -5.5475736 5.7797513 17
43.675938 -3.6380656 5.7900233 3
42.317352 -5.557332 5.4873118 3
44.889839 -3.7391796 5.6318655 3
43.003841 -5.6474853 5.2693934 19
44.106434 -7.050149 5.2686701 14
42.533218 -4.7419744 4.8970289 14
43.831474 -7.0061984 4.9224935 17
42.708393 -4.7615042 4.6140919 19
44.30822 -7.0824037 4.6597843 7
42.806545 -4.7724471 4.3213482 10
44.775604 -7.1571121 4.3898134 14
43.646866 -4.8661332 4.0973077 5
44.66309 -7.1391273 4.0608897 17
43.139488 -4.809566 3.7447944 12
45.03635 -7.198791 3.7746787 4
42.90678 -4.7836218 3.4217188 20
0 -0 0 0
43.61935 -4.8630657 3.17098 12
0 -0 0 0
47.277927 -5.2709556 3.1038873 14
43.000893 -3.5818365 2.6644917 255
0 -0 0 0
43.01437 -3.5829592 2.3635566 255
0 -0 0 0
43.009827 -3.5825808 2.061799 255
0 -0 0 0
43.007172 -3.5823596 1.7603827 255
0 -0 0 0
42.982491 -3.5803037 1.4584277 255
0 -0 0 0
42.991573 -3.5810602 1.1578691 255
0 -0 0 0
43.00256 -3.5819755 0.85733396 255
0 -0 0 0
42.975582 -3.5797281 0.55623698 255
0 -0 0 0
94.344666 -15.08043 0.56657535 8
81.681686 -9.1065865 0.20099108 10
94.251472 -15.065534 -0.09910693 4
81.72879 -9.1118383 -0.37188438 9
94.236656 -15.063165 -0.764054 3
81.648712 -9.10291 -0.94398594 6
0 -0 -0 0
0 -0 -0 0
50.455196 -8.0649614 -1.1212901 7
0 -0 -0 0
49.281536 -7.8773584 -1.4431705 1
38.954079 -4.3429403 -1.270098 255
41.316566 -6.6042056 -1.5017653 0
38.936398 -4.3409691 -1.5428513 255
0 -0 -0 0
0 -0 -0 0
30.794973 -2.5651226 -1.5405493 1
29.262774 -3.8429377 -1.5744693 1
26.871414 -2.2383027 -1.5326847 0
25.648726 -3.3683224 -1.5608647 0
24.198772 -2.0156801 -1.5500697 0
23.322483 -3.0628283 -1.5838677 0
21.853373 -1.8203158 -1.5533215 0
21.167347 -2.7798047 -1.5870095 1
20.002014 -1.6661037 -1.5623519 0
19.665628 -2.5825913 -1.6134573 1
18.405884 -1.5331511 -1.5672213 1
17.611568 -2.3128417 -1.5695902 1
17.07272 -1.4221028 -1.5740069 1
16.285604 -2.1387093 -1.5668305 2
15.899092 -1.3243433 -1.5779806 1
15.244661 -2.0020072 -1.5748622 5
14.470291 -2.3129895 -1.5525604 6
14.372556 -1.6023778 -1.5831445 2
13.662507 -2.1838698 -1.5634512 5
13.520181 -1.5073477 -1.5852538 2
12.961201 -2.0717702 -1.5758963 3
12.798712 -1.426912 -1.5916934 3
12.283928 -1.9635123 -1.5815598 5
12.136973 -1.3531356 -1.5958635 4
11.669876 -1.8653598 -1.5862511 3
11.570345 -1.2899629 -1.6039386 2
11.032921 -1.7635462 -1.5789994 18
11.004222 -1.2268466 -1.6041499 2
10.556849 -1.6874491 -1.5869198 24
10.485847 -1.1690537 -1.6037182 2
10.16319 -1.624525 -1.6011143 6
10.026927 -1.1178893 -1.6055292 3
9.8479376 -0.82030165 -1.6079061 3
9.5419188 -1.2530938 -1.6003306 3
9.471055 -0.78890848 -1.6144221 2
9.1789484 -1.2054267 -1.6058214 3
9.0749493 -0.75591421 -1.6122624 2
8.8554096 -1.1629379 -1.613402 3
8.7812796 -0.73145241 -1.6234895 3
8.5595102 -1.1240789 -1.6216912 5
8.3782835 -0.69788414 -1.6096361 3
8.2366934 -1.0816848 -1.6205354 4
8.1323166 -0.67739594 -1.6214044 3
7.9415331 -1.042923 -1.6204766 5
7.8592758 -0.65465248 -1.6241661 4
7.6506691 -1.0047251 -1.6171713 5
7.5905027 -0.63226449 -1.6240252 5
7.4183879 -0.97422075 -1.6225755 7
15.467628 -2.5001016 3.6504359 19
0 -0 0 0
19.941315 -3.2232032 4.5580978 17
0 -0 0 0
19.97604 -3.2288158 4.4180932 1
0 -0 0 0
0 -0 0 0
0 -0 0 0
0 -0 0 0
0 -0 0 0
0 -0 0 0
0 -0 0 0
0 -0 0 0
0 -0 0 0
0 -0 0 0
42.402412 -4.8023314 7.6172166 22
42.981945 -3.655807 7.5450006 11
43.071114 -5.7328076 7.4439788 6
42.856396 -3.6451287 7.214478 14
42.170708 -5.6129627 6.9835968 23
42.507988 -3.6154952 6.850564 10
41.978977 -5.5874429 6.6491604 19
42.542698 -3.6184473 6.5513282 12
42.290524 -5.6289101 6.3942409 18
42.524055 -3.6168616 6.2444115 22
42.353291 -5.6372643 6.0996494 14
42.890072 -3.6479928 5.9921222 5
42.300091 -5.6301832 5.7888923 17
43.511467 -3.7008455 5.7690678 3
0 -0 0 0
0 -0 0 0
43.13168 -5.740869 5.2862778 16
44.172493 -7.1397958 5.2780414 14
42.497234 -4.8130708 4.893846 15
43.897675 -7.0953755 4.9313111 16
42.605171 -4.825295 4.6038427 19
44.81424 -7.2435246 4.7143235 4
42.817928 -4.849391 4.3233447 14
44.81414 -7.2435079 4.3948245 14
43.361282 -4.9109292 4.0712976 6
44.709557 -7.2266045 4.0662551 16
42.837994 -4.8516636 3.7193522 8
45.118164 -7.2926493 3.7825971 4
42.934025 -4.8625398 3.4245634 23
0 -0 0 0
43.210403 -4.8938413 3.1418672 15
0 -0 0 0
66.361732 -7.5158706 4.3576307 0
42.994576 -3.6568813 2.6644917 255
0 -0 0 0
43.000092 -3.6573508 2.3631194 255
0 -0 0 0
42.983604 -3.6559484 2.0608447 255
0 -0 0 0
42.957047 -3.6536896 1.7585893 255
0 -0 0 0
42.98016 -3.6556554 1.4585629 255
0 -0 0 0
42.989246 -3.6564281 1.1579765 255
0 -0 0 0
42.988274 -3.6563454 0.85717505 255
143.75278 -19.133635 2.3758738 9
42.985214 -3.656085 0.55644339 255
143.65071 -19.12005 1.3642755 12
94.270821 -15.237411 0.56629074 17
113.34305 -12.836791 0.27895373 11
94.319809 -15.245329 -0.099206612 13
113.33031 -12.835347 -0.5157795 8
94.383957 -15.255698 -0.76546305 12
70.564194 -7.9918246 -0.8159917 6
0 -0 -0 0
70.461456 -7.9801888 -1.3090082 4
50.393669 -8.1453524 -1.120237 17
0 -0 -0 0
49.169033 -7.9474092 -1.44028 2
38.942471 -4.4104719 -1.2699684 255
43.151806 -6.9748182 -1.5689121 0
38.813583 -4.395875 -1.5382866 33
0 -0 -0 0
0 -0 -0 0
30.969582 -2.6341019 -1.5495118 1
29.069929 -3.8692362 -1.5644546 1
26.939093 -2.2912908 -1.5367706 0
25.816952 -3.4362617 -1.5714647 0
24.370228 -2.0727973 -1.5612817 0
23.36062 -3.1093214 -1.5868237 1
22.033043 -1.874009 -1.5663223 0
21.099195 -2.8083236 -1.582265 0
20.05868 -1.7060807 -1.5670083 0
19.653189 -2.6158586 -1.6128088 2
18.399208 -1.5649352 -1.5668831 0
17.6628 -2.3509359 -1.5745194 1
17.078148 -1.4525731 -1.5747389 1
16.301584 -2.1697569 -1.5687298 3
15.89279 -1.351753 -1.577587 1
15.249032 -2.0296612 -1.5756774 5
14.375916 -2.3236432 -1.5428675 6
14.330227 -1.6229855 -1.5787917 4
13.64298 -2.2051754 -1.5616547 5
13.5728 -1.5372021 -1.5917356 2
12.977168 -2.0975573 -1.5782803 3
12.784368 -1.4479074 -1.5902214 3
12.280482 -1.9849489 -1.5815598 3
12.142475 -1.3752092 -1.5969001 3
11.66269 -1.8850924 -1.585719 5
11.560202 -1.3092632 -1.6028467 2
11.025916 -1.7821677 -1.5784396 6
11.002064 -1.2460507 -1.6041499 2
10.549983 -1.7052405 -1.5863326 24
10.519156 -1.1913586 -1.609128 3
10.140829 -1.6391072 -1.5980399 6
10.036736 -1.1367214 -1.6074151 3
9.8425579 -0.83715373 -1.6072638 3
9.5670977 -1.2733901 -1.6049237 3
9.4539452 -0.80410045 -1.6117425 3
9.1690168 -1.2204051 -1.604454 3
9.0814648 -0.77241927 -1.613657 2
8.8806791 -1.1820271 -1.6183795 2
8.8113451 -0.74944443 -1.6292876 3
8.5575352 -1.1390164 -1.6216912 4
8.3887949 -0.71350461 -1.6118923 3
8.2309017 -1.0955411 -1.6197696 6
8.1389408 -0.69225341 -1.6229635 3
7.9241552 -1.0547129 -1.6173038 6
7.8620248 -0.66870046 -1.6249729 4
7.6527843 -1.0185931 -1.6179918 5
7.5737953 -0.64418525 -1.6206887 5
7.4050512 -0.9856196 -1.6200323 7
15.455549 -2.5258582 3.6486208 19
0 -0 0 0
19.897144 -3.2517359 4.549293 20
0 -0 0 0
19.904802 -3.2529876 4.4035883 1
0 -0 0 0
0 -0 0 0
0 -0 0 0
0 -0 0 0
0 -0 0 0
0 -0 0 0
0 -0 0 0
0 -0 0 0
42.551186 -4.8944731 7.9538016 2
0 -0 0 0
42.417435 -4.8790884 7.6214342 22
42.963715 -3.7298555 7.542933 11
42.947731 -5.792748 7.4243913 11
42.916775 -3.7257805 7.2257271 17
42.188221 -5.6903062 6.988132 17
42.375706 -3.678808 6.8302698 10
42.020065 -5.667625 6.6572256 19
42.382698 -3.679415 6.527669 10
42.257111 -5.6995978 6.3906841 18
42.454582 -3.6856556 6.235146 22
42.315907 -5.7075281 6.0956922 14
42.871796 -3.7218754 5.990468 5
42.356972 -5.7130671 5.7980332 21
43.346912 -3.7631226 5.7481122 2
43.24131 -5.8323455 5.6097279 9
0 -0 0 0
43.070431 -5.8092976 5.2800059 16
44.301086 -7.240006 5.29491 14
42.567722 -4.8963752 4.9029403 16
44.018612 -7.1938415 4.946301 8
42.612484 -4.9015236 4.6055508 21
45.088154 -7.3686342 4.7444854 3
42.833115 -4.9269023 4.3257408 4
44.734619 -7.3108568 4.3882718 13
43.475296 -5.0007696 4.0828161 12
44.712593 -7.3072572 4.0676861 11
42.651295 -4.9059882 3.7038808 12
0 -0 0 0
43.004696 -4.9466381 3.4308841 25
0 -0 0 0
43.055141 -4.9524412 3.131202 13
0 -0 0 0
0 -0 0 0
42.980167 -3.7312837 2.6639986 255
0 -0 0 0
42.969761 -3.7303805 2.3618069 255
0 -0 0 0
42.94133 -3.7279122 2.0591269 40
0 -0 0 0
42.958561 -3.729408 1.7589153 255
0 -0 0 0
42.985664 -3.7317607 1.4589685 255
0 -0 0 0
42.974827 -3.7308202 1.1577618 255
0 -0 0 0
42.969868 -3.7303896 0.85693663 255
143.76669 -19.391111 2.3766601 14
42.974773 -3.7308156 0.55639178 255
143.59331 -19.367725 1.3640494 13
92.976883 -15.194959 0.5586766 9
113.19727 -13.020577 0.27865049 7
92.88372 -15.179734 -0.097723871 7
0 -0 -0 0
94.171638 -15.390214 -0.76395798 8
70.446823 -8.1031837 -0.81479681 5
0 -0 -0 0
70.455353 -8.1041651 -1.3091558 3
48.954617 -8.0005198 -1.0885562 4
0 -0 -0 0
48.547398 -7.933969 -1.4224746 2
38.982365 -4.4839678 -1.2715229 27
0 -0 -0 0
38.833641 -4.4668608 -1.5393884 15
0 -0 -0 0
0 -0 -0 0
31.096275 -2.6995945 -1.5560843 1
29.173965 -3.9349561 -1.5704207 1
27.050428 -2.3483582 -1.5433534 0
25.755514 -3.4738786 -1.568092 0
24.191587 -2.1001704 -1.5500697 0
23.121799 -3.1186457 -1.5709689 0
22.05756 -1.9149069 -1.5683007 0
21.137745 -2.8510385 -1.5855268 1
20.067589 -1.7421494 -1.5679396 1
19.656492 -2.6512485 -1.6134573 1
18.360712 -1.5939684 -1.5638393 0
17.686308 -2.3855119 -1.5769839 0
16.988283 -1.4748223 -1.5666877 1
16.317501 -2.2008886 -1.570629 2
15.834887 -1.3746911 -1.572075 1
15.221804 -2.053102 -1.5732319 5
14.28547 -2.3346355 -1.5335959 4
14.311569 -1.646196 -1.5770504 4
13.623416 -2.2264378 -1.5598581 3
13.558253 -1.5595454 -1.5903466 2
12.977404 -2.1208618 -1.5787573 3
12.773932 -1.4693284 -1.5892402 4
12.284829 -2.0076761 -1.5825688 3
12.147934 -1.3973227 -1.5979366 3
11.682854 -1.909297 -1.5889118 5
11.550023 -1.3285477 -1.6017549 3
11.069691 -1.8090894 -1.5851563 6
10.99987 -1.2652661 -1.6041499 2
10.546988 -1.7236655 -1.5863326 25
10.477773 -1.2052114 -1.6031171 3
10.118446 -1.6536301 -1.5949656 16
10.050434 -1.1560565 -1.6099297 3
9.8410807 -0.85434443 -1.6072638 3
9.5961418 -1.2943183 -1.6101727 4
9.452527 -0.82061243 -1.6117425 3
9.1629658 -1.2358919 -1.6037705 4
9.0879498 -0.78896207 -1.6150517 3
8.8668995 -1.1959587 -1.6162462 2
8.8061047 -0.76449388 -1.6285629 3
8.5594292 -1.1544875 -1.6224296 4
8.4031925 -0.72951543 -1.6149012 4
8.2173033 -1.1083418 -1.6174721 6
8.1494455 -0.70748663 -1.6253022 3
7.9339581 -1.0701245 -1.6196834 6
7.8569417 -0.6820932 -1.6241661 4
7.6548743 -1.0324819 -1.6188123 7
7.5570688 -0.65606004 -1.6173522 6
7.3955708 -0.99750733 -1.6183368 7
15.331966 -2.5331435 3.6204848 19
0 -0 0 0
19.876041 -3.2839141 4.5457716 20
0 -0 0 0
19.837404 -3.2775307 4.3899364 9
0 -0 0 0
0 -0 0 0
0 -0 0 0
0 -0 0 0
0 -0 0 0
0 -0 0 0
44.195168 -5.1617446 8.5839148 10
0 -0 0 0
44.355057 -5.180419 8.2926655 2
0 -0 0 0
42.43623 -4.9563107 7.6263547 19
42.94537 -3.8037927 7.5408659 15
43.023491 -5.8794417 7.4392509 11
0 -0 0 0
42.389408 -5.7927899 7.0231214 17
42.377087 -3.7534585 6.8315382 10
42.064922 -5.7484465 6.6659122 18
42.250183 -3.7422183 6.5082555 10
42.227501 -5.7706642 6.3877196 19
42.38895 -3.7545092 6.2264595 21
42.278419 -5.7776222 6.0917349 15
42.853394 -3.7956464 5.9888134 12
42.394062 -5.7934256 5.8044858 21
43.162525 -3.8230269 5.7245374 2
43.105274 -5.8906178 5.5934052 9
43.426571 -3.8464141 5.450737 1
43.013016 -5.8780098 5.2742171 13
44.343254 -7.3263807 5.3014703 13
42.551216 -4.9697404 4.9020309 18
44.453148 -7.3445368 4.9965625 9
42.603863 -4.9758892 4.6055508 21
45.087002 -7.4492621 4.7457247 5
43.369984 -5.0653682 4.3808455 8
44.725716 -7.3895707 4.3886571 13
43.430901 -5.0724826 4.0794721 13
44.794109 -7.4008708 4.0762706 3
42.666416 -4.9831953 3.7059438 14
141.44431 -23.369389 11.865114 9
42.952431 -5.0165997 3.4274077 26
141.23514 -23.334833 10.843878 9
42.986992 -5.0206366 3.1268783 14
141.90079 -23.444811 9.8876266 3
47.364643 -5.5319214 3.1114397 17
42.953705 -3.8045311 2.662766 36
0 -0 0 0
42.895554 -3.7993805 2.358089 10
0 -0 0 0
51.073578 -4.5237312 2.44946 12
0 -0 0 0
42.955971 -3.8047318 1.7590784 255
0 -0 0 0
42.955185 -3.8046625 1.4581573 255
0 -0 0 0
42.956299 -3.8047612 1.1574398 255
0 -0 0 0
42.975243 -3.8064389 0.85717505 255
0 -0 0 0
42.972183 -3.8061678 0.55644339 255
0 -0 0 0
92.808151 -15.333738 0.55782264 5
112.50692 -13.140169 0.27700713 7
92.786057 -15.330087 -0.097649112 8
112.36307 -13.123368 -0.51158291 5
92.842323 -15.339383 -0.75339013 10
68.108513 -7.9546876 -0.78791106 3
0 -0 -0 0
67.966354 -7.9380841 -1.2631623 4
48.897171 -8.0787773 -1.0875907 13
62.228756 -7.2679653 -1.5932778 0
48.561092 -8.0232506 -1.4232839 3
39.022133 -4.5575633 -1.2730775 10
0 -0 -0 0
38.893276 -4.5425138 -1.5420643 7
0 -0 -0 0
0 -0 -0 0
30.936317 -2.7401173 -1.5483167 1
29.325354 -4.0075016 -1.5789441 1
26.835455 -2.3768923 -1.5313226 0
25.891829 -3.5382876 -1.5767648 0
24.414532 -2.1624641 -1.5645944 0
23.30217 -3.1843939 -1.583599 0
21.990595 -1.9477692 -1.5637788 0
21.120878 -2.886306 -1.5846372 1
20.072462 -1.7778747 -1.5685604 0
19.675533 -2.6887903 -1.6154033 1
18.230858 -1.6147586 -1.5530169 0
17.650537 -2.4120612 -1.5741673 1
17.076941 -1.512553 -1.5751047 1
16.274179 -2.2239733 -1.5668305 2
15.891937 -1.4075938 -1.5779806 1
15.198483 -2.0769722 -1.5711941 6
14.147941 -2.3375189 -1.5192673 4
14.292876 -1.6693268 -1.5753094 7
13.607745 -2.2482679 -1.5585107 3
13.547618 -1.5822848 -1.5894207 2
12.977601 -2.1441557 -1.579234 3
12.779233 -1.4925419 -1.5902214 4
12.293051 -2.0310545 -1.5840822 4
12.157295 -1.419903 -1.5994916 2
11.706883 -1.9342082 -1.5926366 4
11.535879 -1.3473252 -1.6001171 3
11.117316 -1.8368001 -1.5924329 5
10.997645 -1.2844625 -1.6041499 2
10.52054 -1.7382008 -1.5828086 25
10.440301 -1.2193679 -1.5977073 2
10.084348 -1.6661333 -1.5900466 16
10.020934 -1.1703882 -1.6055292 3
9.8395748 -0.87151897 -1.6072638 3
9.5782299 -1.3089278 -1.6075482 4
9.4510803 -0.83710891 -1.6117425 3
9.1568909 -1.251349 -1.6030869 4
9.0983295 -0.80586475 -1.6171438 3
8.8569965 -1.2103665 -1.6148241 4
8.8008385 -0.77951515 -1.6278381 2
8.5651903 -1.1704893 -1.6239065 3
8.4097328 -0.74487388 -1.6164054 4
8.2075768 -1.121619 -1.6159403 4
8.1364737 -0.72067052 -1.6229635 3
7.9476156 -1.0860937 -1.6228561 4
7.8557391 -0.69580507 -1.6241661 4
7.6414232 -1.0442505 -1.6163509 7
7.5676031 -0.67028403 -1.6198547 6
7.4209299 -1.0141186 -1.624271 7
15.207963 -2.5426593 3.5923486 19
0 -0 0 0
15.351584 -2.5666718 3.5121214 8
0 -0 0 0
19.865767 -3.3214095 4.3976154 9
0 -0 0 0
0 -0 0 0
0 -0 0 0
0 -0 0 0
44.560925 -5.2912002 8.9816895 0
0 -0 0 0
44.118874 -5.2387109 8.5710335 10
0 -0 0 0
44.208344 -5.2493348 8.2671041 16
0 -0 0 0
42.59087 -5.0572743 7.6558757 19
42.871273 -3.8801968 7.52915 15
43.098038 -5.973938 7.4541106 15
42.238861 -3.8229587 7.1139007 7
42.593246 -5.9039679 7.0587587 9
42.37767 -3.8355219 6.8328066 11
42.18689 -5.8476415 6.6870065 18
42.11692 -3.8119221 6.4888425 16
42.259441 -5.857698 6.3942409 19
42.334362 -3.8316023 6.2195106 21
42.286858 -5.8614984 6.0945616 15
42.834187 -3.8768406 5.9871588 12
42.433899 -5.8818798 5.8114758 4
42.981335 -3.8901584 5.7014861 15
42.968136 -5.9559321 5.5770836 12
43.359806 -3.9244132 5.4432931 1
42.974117 -5.9567609 5.2708402 13
44.333019 -7.4121542 5.3019385 15
42.577114 -5.0556412 4.9061236 18
44.701683 -7.4737916 5.0261016 9
42.617928 -5.0604873 4.6081133 23
45.017677 -7.5266237 4.7399406 12
43.44318 -5.1584783 4.3892312 8
44.903866 -7.5075955 4.4075441 15
42.92276 -5.096683 4.0326543 5
141.36134 -23.634573 12.868009 6
42.652813 -5.0646296 3.7055998 14
141.1554 -23.600142 11.844659 7
42.875401 -5.0910597 3.422035 18
141.3199 -23.627645 10.853849 9
43.008968 -5.1069198 3.1291845 14
0 -0 0 0
47.353939 -5.6228447 3.1114397 13
50.703777 -4.5891018 3.1437452 4
0 -0 0 0
50.314651 -4.5538831 2.7664132 12
0 -0 0 0
51.124481 -4.6271791 2.452323 6
0 -0 0 0
0 -0 0 0
0 -0 0 0
42.919933 -3.8846011 1.4572111 42
0 -0 0 0
42.944935 -3.8868639 1.1573327 255
0 -0 0 0
42.951923 -3.8874967 0.85685724 61
0 -0 0 0
42.920975 -3.8846955 0.5558759 255
0 -0 0 0
0 -0 0 0
112.43778 -13.350953 0.27689949 12
94.571266 -15.811618 -0.09955965 2
112.38931 -13.345197 -0.51181811 11
93.017853 -15.551899 -0.75505537 6
68.136818 -8.090621 -0.78841668 6
0 -0 -0 0
68.177353 -8.0954342 -1.2673703 9
48.550255 -8.1172447 -1.080219 7
0 -0 -0 0
48.096027 -8.0413008 -1.4101032 3
38.981552 -4.6287007 -1.2720412 1
0 -0 -0 0
38.840828 -4.6119914 -1.5403329 3
0 -0 -0 0
0 -0 -0 0
30.366013 -2.7483697 -1.5200351 0
29.218695 -4.0500841 -1.5736171 1
26.902433 -2.4348879 -1.5354086 0
25.964085 -3.5989537 -1.581583 1
24.366604 -2.205375 -1.5617914 0
23.280199 -3.2269328 -1.5825241 0
22.022577 -1.9932214 -1.5663223 0
21.293102 -2.9514956 -1.597981 1
20.136532 -1.8225189 -1.5738376 1
19.666386 -2.7260122 -1.6150789 1
18.319019 -1.6580194 -1.5607954 1
17.602457 -2.4399252 -1.5702943 1
17.022432 -1.5406679 -1.5703472 1
16.301435 -2.259587 -1.5698692 2
15.821812 -1.4320019 -1.5712876 1
15.135345 -2.0979521 -1.5650804 5
14.010036 -2.3423746 -1.5049386 4
14.254108 -1.6925445 -1.5713917 7
13.595563 -2.2730777 -1.5576124 5
13.501155 -1.6031381 -1.5843278 2
12.97346 -2.1690669 -1.579234 3
12.788171 -1.5184777 -1.5916934 2
12.26956 -2.0513799 -1.5815598 4
12.130915 -1.4404347 -1.5963818 2
11.699239 -1.9560264 -1.5921044 4
11.525402 -1.3685355 -1.5990251 2
11.129395 -1.8607528 -1.5946717 5
10.995159 -1.3055741 -1.6041499 2
10.497672 -1.7551334 -1.5798721 27
10.437941 -1.2394096 -1.5977073 2
10.053843 -1.6809283 -1.5857426 21
9.9951324 -1.1868302 -1.6017574 3
9.837883 -0.89040798 -1.6072638 3
9.5600653 -1.3251472 -1.6049237 3
9.4494553 -0.85525215 -1.6117425 3
9.1544714 -1.2689265 -1.6030869 4
9.1124554 -0.82475096 -1.6199331 3
8.8585558 -1.227909 -1.6155353 4
8.7679834 -0.79357344 -1.6220399 2
8.5590334 -1.1863914 -1.6231681 3
8.4200249 -0.76208037 -1.6186619 3
8.201519 -1.1368352 -1.6151745 4
8.1272602 -0.73558277 -1.6214044 4
7.9105644 -1.0965052 -1.6157174 4
7.8504872 -0.71053261 -1.6233594 4
7.6277704 -1.0573064 -1.6138895 5
7.5818863 -0.68622202 -1.6231911 6
7.446074 -1.0321208 -1.6302052 8
15.222709 -2.572444 3.5968869 19
0 -0 0 0
15.320151 -2.5889103 3.5059583 8
0 -0 0 0
15.66369 -2.6469641 3.4684339 5
0 -0 0 0
0 -0 0 0
0 -0 0 0
0 -0 0 0
44.376392 -5.3478484 8.9463625 3
0 -0 0 0
44.047268 -5.3081856 8.5589094 18
0 -0 0 0
44.199116 -5.3264847 8.2671041 16
0 -0 0 0
0 -0 0 0
42.797733 -3.9488614 7.5174336 16
43.083645 -6.0486016 7.4534349 15
42.239979 -3.8973985 7.1152239 7
42.637608 -5.9859815 7.0678301 9
42.359112 -3.9083903 6.8309035 11
42.309669 -5.9399414 6.7081013 13
42.102329 -3.8846974 6.4876294 16
42.296165 -5.9380455 6.4013557 15
42.284256 -3.9014838 6.2131405 20
42.296177 -5.9380469 6.0973883 14
42.819466 -3.9508665 5.9860559 14
0 -0 0 0
43.013962 -3.968812 5.7067246 15
43.177689 -6.0618048 5.6056471 12
43.29361 -3.9946148 5.4358497 12
42.940063 -6.0284438 5.2679462 10
44.44928 -7.5113621 5.3174014 15
42.564285 -5.1294694 4.9056692 17
44.645451 -7.5445127 5.0212517 3
42.628773 -5.1372409 4.6102481 20
44.980938 -7.6012053 4.7374611 14
43.054771 -5.1885781 4.3508973 2
44.93388 -7.5932536 4.4117837 6
42.727955 -5.1491938 4.0151906 9
140.6953 -23.775713 12.811137 6
42.568733 -5.1300058 3.6990674 18
140.91353 -23.812592 11.827832 8
42.838737 -5.1625443 3.4198229 15
141.43185 -23.900181 10.865633 6
43.281216 -5.2158675 3.1496499 15
0 -0 0 0
47.530308 -5.7279305 3.1236806 6
46.084099 -4.2520876 2.8577709 0
0 -0 0 0
50.314579 -4.6424255 2.7668507 13
0 -0 0 0
0 -0 0 0
0 -0 0 0
137.92694 -12.726243 5.6500816 5
0 -0 0 0
43.040474 -3.9712584 1.4615369 1
0 -0 0 0
42.98188 -3.965852 1.1585131 14
0 -0 0 0
43.016754 -3.9690695 0.85828745 8
0 -0 0 0
42.953957 -3.9632757 0.55639178 14
0 -0 0 0
0 -0 0 0
0 -0 0 0
94.444923 -15.959989 -0.099455811 8
0 -0 -0 0
0 -0 -0 0
68.170235 -8.215271 -0.78896815 4
0 -0 -0 0
68.040039 -8.1995811 -1.2650816 4
47.822308 -8.0813608 -1.0643348 6
0 -0 -0 0
47.526035 -8.0312948 -1.3938007 3
0 -0 -0 0
0 -0 -0 0
38.654148 -4.6582546 -1.5332499 1
0 -0 -0 0
0 -0 -0 0
30.834568 -2.8450439 -1.5437359 1
29.203671 -4.0999632 -1.5731909 1
26.866329 -2.4789023 -1.5335927 0
25.732389 -3.612623 -1.5678511 0
24.263342 -2.23873 -1.5554209 0
23.428669 -3.2891989 -1.5930043 0
22.078663 -2.037154 -1.5705619 0
21.161512 -2.9709082 -1.588492 1
20.145231 -1.8587602 -1.5747689 0
19.677393 -2.7625499 -1.6163763 1
18.347849 -1.6929193 -1.5635011 1
17.669199 -2.4806151 -1.5766319 1
17.035585 -1.5718392 -1.5718112 1
16.27775 -2.2852669 -1.5679699 3
15.934237 -1.4702201 -1.5827051 1
15.1159 -2.1221523 -1.5634502 5
13.880419 -2.345614 -1.4914527 4
14.215605 -1.7131383 -1.5674742 6
13.591576 -2.2968032 -1.5576124 5
13.458891 -1.621946 -1.579698 5
12.973571 -2.1923683 -1.5797108 2
12.777618 -1.5398451 -1.5907122 2
12.250312 -2.0701466 -1.5795418 3
12.104756 -1.4587578 -1.5932719 4
11.695807 -1.9764426 -1.5921044 4
11.550535 -1.3919679 -1.6028467 2
11.141752 -1.8828143 -1.5969106 4
10.981072 -1.3233414 -1.6024294 2
10.502396 -1.7747711 -1.5810467 27
10.439689 -1.2580985 -1.5983083 2
10.043099 -1.697156 -1.5845127 21
9.9852028 -1.2033279 -1.6005001 3
9.8363142 -0.90757698 -1.6072638 2
9.573369 -1.3440249 -1.6075482 3
9.4479485 -0.87174326 -1.6117425 2
9.1678543 -1.2870939 -1.6058214 4
9.103159 -0.8399303 -1.6185385 3
8.8602982 -1.2439156 -1.6162462 4
8.7391653 -0.80634522 -1.6169665 3
8.5530577 -1.2007813 -1.6224296 5
8.4147701 -0.77641404 -1.6179098 3
8.199522 -1.1511478 -1.6151745 5
8.1298714 -0.75012696 -1.6221842 4
7.8775792 -1.1059495 -1.609372 5
7.8453331 -0.7238732 -1.6225524 5
7.6220369 -1.0700735 -1.6130689 5
7.5962596 -0.70089167 -1.6265275 6
7.40555 -1.0396804 -1.6217277 8
15.237391 -2.6023085 3.6014247 27
19.698196 -2.4087653 4.550663 6
15.292527 -2.6117249 3.5006754 16
0 -0 0 0
15.601259 -2.6644514 3.4556353 5
0 -0 0 0
0 -0 0 0
0 -0 0 0
0 -0 0 0
44.331944 -5.4210672 8.9392967 3
0 -0 0 0
44.045727 -5.3860679 8.5604258 18
0 -0 0 0
44.189743 -5.4036789 8.2671041 24
0 -0 0 0
0 -0 0 0
42.802544 -4.0247164 7.5195017 16
43.073013 -6.1238465 7.4534349 22
42.244888 -3.9722803 7.1172085 14
42.681793 -6.0682254 7.0769014 13
42.34042 -3.9812629 6.8290009 18
42.31488 -6.0160594 6.7105832 13
42.087605 -3.9574909 6.4864159 17
42.344479 -6.0202675 6.4102492 15
42.214333 -3.9694068 6.2038751 20
0 -0 0 0
42.800667 -4.0245399 5.9844012 14
43.566826 -6.1940536 5.9695601 14
43.046448 -4.0476503 5.7119637 12
43.38699 -6.1684856 5.6342111 10
43.254951 -4.0672565 5.4318795 12
0 -0 0 0
44.627964 -7.6217589 5.3403621 15
42.64204 -5.2144203 4.9156733 15
44.702744 -7.6345301 5.0291877 2
42.738167 -5.2261748 4.6230593 22
44.963669 -7.6790924 4.7370481 12
43.089096 -5.2690878 4.3552895 3
45.034359 -7.6911654 4.4229617 2
42.596344 -5.2088318 4.0036716 15
139.50682 -23.825586 12.706689 6
42.563663 -5.2048359 3.6994114 18
139.53175 -23.829845 11.715327 6
42.782162 -5.2315545 3.4160304 15
139.84474 -23.883299 10.746891 6
43.485886 -5.3176084 3.165215 8
139.64766 -23.84964 9.739481 8
47.50042 -5.8085198 3.1223783 3
47.666546 -4.4820776 2.9563825 1
0 -0 0 0
50.473404 -4.7460065 2.7760363 12
0 -0 0 0
0 -0 0 0
0 -0 0 0
137.47476 -12.92673 5.6324744 5
0 -0 0 0
43.339943 -4.0752482 1.4719454 0
0 -0 0 0
42.911194 -4.0349326 1.156796 0
0 -0 0 0
43.053551 -4.0483189 0.85916144 0
0 -0 0 0
43.090328 -4.0517769 0.558249 0
0 -0 0 0
87.988457 -15.027054 0.52933496 6
109.73428 -13.418696 0.27035534 9
93.352318 -15.943117 -0.098334417 4
109.76126 -13.421997 -0.5000605 21
88.026611 -15.033571 -0.71496165 3
0 -0 -0 0
0 -0 -0 0
65.187233 -7.9713259 -1.2122961 9
47.73716 -8.1527615 -1.0627551 14
0 -0 -0 0
47.350342 -8.0866985 -1.3890603 3
0 -0 -0 0
0 -0 -0 0
38.598343 -4.7199426 -1.531361 1
0 -0 -0 0
34.315258 -4.1961918 -1.6027552 0
30.952854 -2.9104919 -1.5499101 1
