# .PCD v0.7 - Point Cloud Data file format
VERSION 0.7
FIELDS x y z intensity
SIZE 4 4 4 4
TYPE F F F F
COUNT 1 1 1 1
WIDTH 1474
HEIGHT 1
VIEWPOINT 0 0 0 1 0 0 0
POINTS 1474
DATA ascii
12.926427 -1.3913848 2.4611728 14
13.86574 -0.82950675 2.5794535 4
13.040979 -1.4037151 2.3884413 6
13.80866 -0.82609195 2.4692519 36
13.921496 -0.44323912 2.4362054 23
15.296225 -1.2155501 2.6287966 12
14.257498 -0.45393687 2.392695 20
15.43609 -1.2266648 2.5419049 20
14.289603 -0.45495909 2.2957823 16
15.524276 -1.2336726 2.4451191 0
18.288584 -0.58228052 2.8076255 12
14.519546 -1.1538293 2.1829944 17
18.311649 -0.58301485 2.6806438 2
18.213339 -1.4473653 2.6083207 0
0 -0 0 0
18.163843 -1.443432 2.471813 6
19.14784 -0.60963792 2.5309086 11
18.172661 -1.4441327 2.3437624 15
19.383196 -0.61713123 2.4246449 8
0 -0 0 0
16.304134 -1.7549571 1.9342821 21
20.128433 -1.2041675 2.3073196 12
16.439676 -1.7695466 1.8336453 11
34.039143 -2.0363643 3.6613812 2
16.360998 -1.7610779 1.7088907 5
28.88707 -1.7281458 2.9033933 13
27.305872 -2.9391706 2.6587875 6
28.886686 -1.7281228 2.699831 11
27.299862 -2.9385238 2.4652209 9
43.579914 -2.6071334 3.7664545 11
27.27664 -2.9360242 2.2705479 10
43.585155 -2.6074469 3.4605913 9
27.232224 -2.9312432 2.0748096 6
50.49786 -3.0209939 3.6549428 5
0 -0 0 0
52.721439 -3.1540177 3.4461014 0
56.567535 -1.8010236 3.4948032 3
65.744926 -5.2245736 3.8419394 8
59.800064 -1.9039423 3.276217 5
65.849655 -5.2328959 3.3864117 7
0 -0 0 0
61.190941 -4.8626804 2.7181497 10
0 -0 0 0
47.740189 -3.7937851 1.7864131 13
0 -0 0 0
46.368435 -3.6847754 1.4106117 46
0 -0 0 0
46.405014 -3.6876822 1.0871348 255
0 -0 0 0
47.312473 -3.7597954 0.77756464 11
0 -0 0 0
47.408436 -3.7674215 0.44771704 12
27.242155 -2.9323125 0.16248183 3
60.990772 -3.6487241 0.14942028 15
27.246597 -2.9327905 -0.028454514 4
60.962379 -3.6470256 -0.27617735 26
27.313347 -2.9399753 -0.21993893 2
60.851185 -3.6403735 -0.70045227 18
27.259464 -2.9341755 -0.41056347 2
49.355335 -2.9526434 -0.91271037 0
27.283791 -2.936794 -0.60219866 2
18.959963 -1.1342646 -0.48302716 0
27.346539 -2.943548 -0.79535091 1
16.729294 -1.0008166 -0.54306918 0
27.348314 -2.9437392 -0.98725969 1
16.346083 -0.97789127 -0.64487469 7
25.048172 -2.6961546 -1.0800345 3
16.253452 -0.9723497 -0.75488061 8
16.107824 -0.51284844 -0.80343574 56
27.103891 -2.1538737 -1.4504552 1
16.049948 -0.51100576 -0.91275549 33
24.346828 -1.9347773 -1.4736547 1
16.039211 -0.51066393 -1.0243762 43
21.622719 -1.7182995 -1.4605227 4
16.067577 -0.51156706 -1.1387067 45
20.148712 -1.6011642 -1.5024995 4
16.095133 -0.51244438 -1.2534825 18
18.699089 -1.4859666 -1.5258929 1
18.002151 -0.57316095 -1.5283283 1
17.401125 -1.3828207 -1.5424796 1
16.840504 -0.53617585 -1.5480236 2
16.270615 -1.2929822 -1.5569547 1
15.647682 -0.49819821 -1.5484526 1
15.168569 -1.2054056 -1.5585593 1
14.569823 -1.568278 -1.5525604 8
14.328627 -0.8571986 -1.5713917 2
13.811809 -1.4866862 -1.5697391 3
13.579669 -0.81239283 -1.5852538 2
13.153019 -1.4157748 -1.5882937 3
12.80351 -0.76595974 -1.5853149 2
12.423655 -1.337267 -1.5886226 3
12.138905 -0.72620022 -1.5891255 3
11.817155 -1.2719841 -1.5952971 2
11.557965 -0.69144601 -1.5952036 3
11.289952 -1.2152367 -1.6047469 4
11.084252 -0.6631065 -1.6087382 3
10.782886 -1.1606567 -1.609825 2
10.543826 -0.63077599 -1.6055214 3
10.303831 -1.1090918 -1.6121818 3
10.082873 -0.60319984 -1.6074151 4
9.8967686 -0.31509793 -1.611118 4
9.6840725 -0.76956731 -1.6154218 3
9.4990416 -0.30243492 -1.6144221 5
9.2640266 -0.7361874 -1.611974 4
9.1175127 -0.29028761 -1.6150517 5
8.9386921 -0.71033394 -1.6198016 4
8.7639771 -0.2790316 -1.615517 5
8.5980358 -0.68326288 -1.6202142 5
8.4580135 -0.26929018 -1.6201663 5
8.3126183 -0.66058153 -1.6266623 6
8.1759548 -0.26030988 -1.6253022 5
7.9962745 -0.63544255 -1.6228561 6
7.8903317 -0.25121608 -1.62578 5
7.7662606 -0.61716396 -1.6327605 6
7.628572 -0.24288204 -1.6273617 7
7.4546738 -0.59240294 -1.6217277 9
12.430918 -1.3600347 2.9134512 12
13.378755 -0.82384628 3.0737088 17
12.415886 -1.3583901 2.8183255 5
12.939895 -0.79682183 2.8779509 18
13.511183 -1.4782237 2.9675798 10
12.943981 -0.79707348 2.7841914 14
13.375787 -1.4634104 2.8397655 23
13.162401 -0.81052351 2.7351942 31
13.313311 -1.456575 2.7291706 2
13.075403 -0.80516624 2.6220472 12
13.06658 -1.4295808 2.5833349 7
13.28149 -0.81785691 2.5670669 28
12.931787 -1.4148335 2.4626608 14
0 -0 0 0
13.018947 -1.4243695 2.3848584 14
13.862218 -0.85361731 2.4790924 15
13.834064 -0.46466398 2.4210439 11
15.136891 -1.2295191 2.601779 12
14.110804 -0.47395921 2.3682122 20
15.296225 -1.2424612 2.5192266 20
14.363783 -0.48245642 2.307832 16
15.518158 -1.2604882 2.4444988 6
18.307295 -0.61491263 2.8106587 12
0 -0 0 0
18.294781 -0.6144923 2.6783273 4
18.11211 -1.4711863 2.5941882 7
18.320904 -0.61536974 2.5518222 4
18.109932 -1.4710093 2.4648228 6
0 -0 0 0
18.10684 -1.4707582 2.3356013 15
19.457457 -0.65354472 2.4340737 7
0 -0 0 0
16.328686 -1.7864795 1.9375623 18
20.046967 -1.2344661 2.2982249 11
16.393084 -1.793525 1.8287954 19
34.03553 -2.0958636 3.6613812 6
16.357895 -1.7896751 1.7088907 14
29.007153 -1.7862227 2.915772 8
16.507856 -1.806082 1.6076839 0
29.022753 -1.7871833 2.712836 7
27.274881 -2.9840746 2.4634326 43
43.591202 -2.6842895 3.7678297 7
27.279392 -2.9845679 2.2712078 33
43.46909 -2.6767697 3.4517424 9
27.290495 -2.9857829 2.0796437 20
50.468605 -3.1077909 3.6532133 4
27.30027 -2.9868524 1.8880343 28
62.962601 -3.8771548 4.1159449 3
56.149323 -1.8859656 3.4691641 5
42.380337 -3.4424133 2.4769297 7
0 -0 0 0
61.066422 -4.9602218 3.1408682 4
0 -0 0 0
53.080994 -4.3115916 2.3582306 6
0 -0 0 0
0 -0 0 0
0 -0 0 0
46.341995 -3.7642055 1.4100056 1
210.91705 -7.0843649 5.664104 4
46.350662 -3.7649097 1.0860142 48
0 -0 0 0
47.600819 -3.8664556 0.78241342 2
0 -0 0 0
47.469547 -3.855793 0.44835714 4
27.276752 -2.9842792 0.16271904 16
60.96434 -3.7541046 0.14937139 15
27.277218 -2.9843299 -0.028491894 16
60.95192 -3.7533398 -0.27615929 25
27.284309 -2.985106 -0.2197468 9
60.81279 -3.7447722 -0.70008457 24
27.290075 -2.9857368 -0.41110247 7
49.19841 -3.0295739 -0.90990496 1
27.266691 -2.9831786 -0.60193539 11
18.957951 -1.1674058 -0.48302716 0
27.277758 -2.9843891 -0.79350096 9
43.007915 -2.6483715 -1.3962786 5
27.235838 -2.9798028 -0.9833858 6
16.380253 -1.0086746 -0.64629132 2
25.114927 -2.7477596 -1.0831183 3
16.275656 -1.0022336 -0.75599205 10
16.106903 -0.54100496 -0.80343574 44
27.251369 -2.2135377 -1.4585522 1
16.061003 -0.53946328 -0.91343653 36
24.399122 -1.9818592 -1.4770275 1
16.050261 -0.53910249 -1.0251405 43
21.615704 -1.7557713 -1.460254 4
16.062672 -0.53951931 -1.1384242 47
19.978895 -1.6228189 -1.4900453 5
16.082254 -0.54017711 -1.2525512 23
18.775938 -1.5251068 -1.5323792 1
17.977222 -0.60382599 -1.526299 1
17.410595 -1.4142045 -1.5435358 1
16.795748 -0.56414217 -1.5439979 2
16.184984 -1.3146522 -1.5489781 1
15.71044 -0.52768844 -1.5547519 1
15.130745 -1.2290199 -1.5548912 1
14.547289 -1.5915813 -1.5504533 8
14.323136 -0.88200009 -1.5709565 2
13.832896 -1.5134215 -1.5724339 3
13.602022 -0.83759481 -1.5880318 2
13.13868 -1.4374691 -1.5868632 2
12.78234 -0.78711981 -1.5828617 2
12.425243 -1.3594139 -1.5891271 3
12.149493 -0.74814993 -1.5906805 3
11.84644 -1.2960886 -1.5995542 3
11.560695 -0.71189255 -1.5957497 3
11.275999 -1.2336781 -1.6030678 4
11.051467 -0.6805349 -1.6041499 3
10.761176 -1.1773525 -1.6068885 2
10.597966 -0.65260899 -1.6139368 3
10.278302 -1.1245226 -1.6084926 3
10.073918 -0.6203388 -1.6061579 4
9.9040937 -0.33266261 -1.6124028 5
9.6905794 -0.7871334 -1.6167341 3
9.5024385 -0.31917164 -1.6150919 4
9.2745104 -0.7533375 -1.6140249 4
9.116991 -0.30622509 -1.6150517 5
8.9295893 -0.7253207 -1.6183795 4
8.7674084 -0.29448316 -1.6162418 5
8.6125021 -0.69956481 -1.6231681 6
8.4732351 -0.28460237 -1.6231749 5
8.3075371 -0.67479354 -1.6258963 5
8.1598034 -0.27407467 -1.6221842 5
7.9951515 -0.64941949 -1.6228561 6
7.9055424 -0.26553449 -1.6290072 7
7.737855 -0.62852013 -1.6270171 6
7.6320462 -0.25634816 -1.6281958 7
7.4575229 -0.60574967 -1.6225755 9
12.385932 -1.3770106 2.9034672 16
13.264456 -0.84006721 3.0477817 17
12.425129 -1.3813683 2.8209667 4
12.950174 -0.82016307 2.8805516 21
13.469739 -1.4975032 2.9590476 10
12.907441 -0.81745666 2.7766347 21
13.260405 -1.4742303 2.8158116 23
13.074971 -0.82806671 2.7173223 23
13.353596 -1.4845909 2.737956 2
13.073977 -0.8280037 2.6220472 12
13.036757 -1.4493661 2.5779352 26
13.150691 -0.8328622 2.542063 28
12.937109 -1.4382879 2.4641488 19
13.069924 -0.82774711 2.431931 3
0 -0 0 0
13.860705 -0.87782902 2.4790924 15
13.841107 -0.48910546 2.4224222 11
14.977559 -1.2429147 2.5747616 11
13.964085 -0.49345109 2.3437295 20
15.160288 -1.2580785 2.4971964 10
14.441857 -0.51033425 2.3205159 18
15.452923 -1.2823628 2.4345717 6
18.329903 -0.64772671 2.8142989 13
0 -0 0 0
18.29368 -0.6464467 2.6783273 4
0 -0 0 0
18.272291 -0.64569086 2.5452042 4
18.059935 -1.498706 2.4583704 14
18.436205 -0.65148312 2.4371324 3
18.044939 -1.4974616 2.3279505 13
19.484051 -0.68851101 2.4375472 7
22.219681 -1.8439032 2.7087469 9
16.365019 -1.8193871 1.942248 8
20.401731 -1.2920866 2.3391511 16
16.413633 -1.8247918 1.8314408 27
42.517937 -2.6927547 4.5743775 0
16.331017 -1.8156068 1.7064116 25
29.119177 -1.8441815 2.927352 10
16.449276 -1.8287543 1.6022877 0
29.178576 -1.8479435 2.7276988 4
27.285465 -3.0334716 2.4648631 53
43.542698 -2.7576549 3.7640479 4
27.254328 -3.03001 2.2695582 47
43.675262 -2.7660506 3.4684925 3
27.265417 -3.0312426 2.0781329 46
49.268612 -3.1202896 3.5667398 5
27.283113 -3.0332103 1.8872114 50
49.2962 -3.1220369 3.2229068 4
55.383873 -1.9571089 3.4220769 5
42.342426 -3.5137916 2.4750688 12
55.554047 -1.9631224 3.0439513 1
42.318771 -3.5118287 2.1769207 8
0 -0 0 0
42.277111 -3.5083714 1.8785156 5
0 -0 0 0
42.32896 -3.5126743 1.5843774 3
0 -0 0 0
42.195492 -3.5015984 1.2840278 3
210.92435 -7.4534678 5.6646409 3
42.171505 -3.4996078 0.98823649 2
0 -0 0 0
42.26104 -3.5070379 0.69474328 1
0 -0 0 0
0 -0 0 0
27.267523 -3.0314767 0.16269532 43
49.424828 -3.1301832 0.12111112 2
27.275938 -3.0324123 -0.028496047 47
49.268784 -3.1203005 -0.22325 3
27.290977 -3.0340843 -0.21984287 37
49.282005 -3.1211379 -0.5674026 2
27.253019 -3.0298643 -0.41062334 30
49.213001 -3.1167679 -0.91027409 3
27.257462 -3.0303583 -0.60184759 34
18.896021 -1.1967267 -0.48150182 1
27.280451 -3.0329142 -0.79373223 28
43.027168 -2.7250054 -1.397056 7
27.222645 -3.0264874 -0.98309886 19
16.569933 -1.0494103 -0.65384656 2
24.895609 -2.7677786 -1.0738668 2
16.369585 -1.0367219 -0.76043802 6
16.093954 -0.56871468 -0.80283827 27
26.972799 -2.2383413 -1.4438496 1
16.064028 -0.56765717 -0.91366351 36
24.423479 -2.0267856 -1.4787139 1
16.033339 -0.56657267 -1.0241213 43
21.521124 -1.7859333 -1.4540732 2
16.069681 -0.56785691 -1.1389894 48
19.84882 -1.6471568 -1.4805565 6
16.121141 -0.56967533 -1.2556554 21
18.88847 -1.5674621 -1.5417843 2
17.932325 -0.63367748 -1.5225788 1
17.356478 -1.4403296 -1.5389588 1
16.802702 -0.59375978 -1.5447299 1
16.277901 -1.3508238 -1.5580943 1
15.681647 -0.55414486 -1.5519959 1
15.223747 -1.2633446 -1.5646729 1
14.528672 -1.6152304 -1.5487676 12
14.329512 -0.90751952 -1.5718271 2
13.857883 -1.5406553 -1.5755779 3
13.560885 -0.85884076 -1.5834019 2
13.1322 -1.4599771 -1.5863863 2
12.765098 -0.80844176 -1.5808989 2
12.430737 -1.3819916 -1.5901359 3
12.148168 -0.7693702 -1.5906805 3
11.812637 -1.3132743 -1.5952971 3
11.563388 -0.73233485 -1.5962956 2
11.285636 -1.2546848 -1.6047469 4
11.018656 -0.69783574 -1.5995618 2
10.743373 -1.1943984 -1.6045394 3
10.581024 -0.67011958 -1.6115324 3
10.256681 -1.1402903 -1.6054183 3
10.064935 -0.63743448 -1.6049006 3
9.8995533 -0.3498221 -1.6117605 5
9.6970539 -0.80471134 -1.6180465 4
9.4900436 -0.3353512 -1.6130823 4
9.2849636 -0.77051389 -1.6160758 4
9.1203785 -0.32228827 -1.615749 5
8.9204636 -0.74026579 -1.6169573 4
8.770812 -0.3099356 -1.6169665 5
8.6151848 -0.7149322 -1.6239065 6
8.4923573 -0.3000958 -1.6269358 6
8.2867842 -0.68767983 -1.6220672 5
8.1436272 -0.28777266 -1.6190659 6
7.9940052 -0.66338354 -1.6228561 6
7.9011507 -0.27920422 -1.6282003 7
7.7094345 -0.63976842 -1.6212738 6
7.6354961 -0.26981676 -1.6290299 5
7.4642453 -0.61942136 -1.624271 7
12.557704 -1.4183345 2.9443099 16
13.150142 -0.85590941 3.0218546 10
12.651453 -1.428923 2.8729134 4
12.979895 -0.84482843 2.8874865 21
13.428269 -1.5166608 2.950515 9
12.898188 -0.83951038 2.7749555 21
13.148914 -1.485109 2.7926841 38
12.995337 -0.84583348 2.7010753 23
13.393821 -1.5127701 2.7467418 2
13.076424 -0.85111123 2.6228323 8
13.042003 -1.4730338 2.579478 26
13.019877 -0.84743083 2.5170591 14
12.985345 -1.4666345 2.4738209 19
13.080232 -0.85135913 2.4341218 3
0 -0 0 0
0 -0 0 0
13.848105 -0.51359177 2.4238005 27
0 -0 0 0
13.896184 -0.5153749 2.3324807 20
15.047939 -1.275245 2.4790537 10
14.389636 -0.53367579 2.3122714 18
15.391595 -1.3043681 2.4252653 15
18.328741 -0.67976743 2.8142989 13
15.199149 -1.2880594 2.2861562 19
18.296476 -0.67857075 2.6789064 11
0 -0 0 0
18.223625 -0.67586893 2.5385861 11
0 -0 0 0
18.427113 -0.68341571 2.4360847 3
0 -0 0 0
19.514549 -0.72374606 2.4415171 5
0 -0 0 0
16.44471 -1.8573537 1.952088 10
20.367718 -1.3256831 2.3355134 10
16.406467 -1.8530345 1.831 28
20.347742 -1.3243829 2.1893981 2
16.323864 -1.8437049 1.7059985 26
29.175484 -1.8989583 2.9333417 8
27.26635 -3.079608 2.6564751 17
29.230942 -1.9025679 2.7329009 8
27.291996 -3.0825045 2.4659362 18
43.474182 -2.8296244 3.7585468 5
27.276718 -3.0807791 2.2718678 17
43.793709 -2.8504217 3.4782894 0
27.228369 -3.0753183 2.0757158 20
49.290951 -3.2082231 3.5687575 20
27.253979 -3.0782106 1.8855653 15
49.258804 -3.2061307 3.2208233 15
55.24472 -2.0488892 3.4136951 11
42.33622 -3.5878034 2.4750688 18
55.418819 -2.055346 3.0367341 3
42.34441 -3.5884976 2.1785588 13
0 -0 0 0
42.290821 -3.5839562 1.8794004 13
0 -0 0 0
42.243095 -3.5799117 1.5813953 14
0 -0 0 0
42.185318 -3.5750155 1.2839065 11
0 -0 0 0
42.133446 -3.5706193 0.98748946 10
0 -0 0 0
42.091457 -3.5670609 0.69205683 4
0 -0 0 0
42.10321 -3.5680568 0.39778659 2
27.250256 -3.0777903 0.16262415 54
49.279575 -3.2074828 0.12076876 13
27.238798 -3.0764961 -0.028462822 48
49.291195 -3.2082388 -0.22337662 16
27.27371 -3.0804393 -0.2197468 36
49.212612 -3.2031243 -0.56666732 8
27.23576 -3.0761528 -0.41044369 41
49.223438 -3.2038291 -0.91056937 8
27.275967 -3.080694 -0.60237414 45
43.346237 -2.8212969 -1.1046576 2
27.259214 -3.0788021 -0.79326975 38
42.914623 -2.7932041 -1.393558 10
27.245117 -3.0772099 -0.9841032 37
0 -0 -0 0
24.747774 -2.7951465 -1.0676991 1
0 -0 -0 0
16.072973 -0.59610659 -0.80184245 37
27.064367 -2.2935829 -1.4489636 1
16.067001 -0.59588516 -0.91389048 33
24.376135 -2.0657673 -1.4760638 1
16.052271 -0.59533876 -1.0253954 45
21.573647 -1.8282691 -1.4578354 2
16.068665 -0.59594679 -1.1389894 44
19.814112 -1.6791565 -1.4781843 5
16.120119 -0.59785515 -1.2556554 15
18.639399 -1.5796049 -1.5216768 4
18.066608 -0.6700455 -1.5340775 1
17.421427 -1.4763873 -1.5449443 1
16.749889 -0.62121171 -1.5399724 1
16.319159 -1.3829751 -1.5622724 1
15.700543 -0.58229411 -1.5539645 1
15.177901 -1.2862586 -1.5601896 1
14.510016 -1.6388391 -1.5470818 12
14.335838 -0.93308342 -1.5726976 2
13.803824 -1.5590781 -1.5697391 3
13.519716 -0.87996405 -1.5787721 2
13.125682 -1.4824851 -1.5859095 2
12.755742 -0.83023894 -1.5799177 2
12.440131 -1.4050552 -1.5916494 4
12.146804 -0.79060471 -1.5906805 3
11.782747 -1.3308069 -1.5915723 4
11.569999 -0.75306189 -1.5973874 2
11.295232 -1.2757441 -1.606426 4
11.049021 -0.71915275 -1.6041499 2
10.7452 -1.2136205 -1.6051266 3
10.564053 -0.68758744 -1.609128 3
10.266455 -1.1595485 -1.607263 3
10.091399 -0.65682358 -1.609301 3
9.8949795 -0.3669802 -1.611118 3
9.703495 -0.82232744 -1.6193587 4
9.4776201 -0.35150135 -1.6110727 5
9.2914562 -0.78740895 -1.6174428 4
9.1434164 -0.33910656 -1.6199331 5
8.9152336 -0.75552583 -1.6162462 4
8.7741871 -0.32541278 -1.6176914 6
8.6178398 -0.73032302 -1.6246451 4
8.4564848 -0.31362998 -1.6201663 6
8.2660084 -0.70050693 -1.6182379 5
8.1548738 -0.30244398 -1.6214044 6
7.9967389 -0.67768753 -1.6236492 6
7.8967357 -0.29287028 -1.6273935 6
7.727809 -0.65489691 -1.6253761 6
7.6311035 -0.28301865 -1.6281958 5
7.4865222 -0.63444895 -1.6293575 7
12.733241 -1.4606899 2.9860604 30
13.055263 -0.87263674 3.0003974 10
12.881525 -1.4777002 2.9257405 11
13.009569 -0.86958253 2.8944211 13
13.355715 -1.5320967 2.9351568 9
12.888896 -0.86151654 2.7732763 31
13.181295 -1.5120883 2.800118 38
12.91568 -0.86330682 2.6848283 27
13.223721 -1.516955 2.7123976 2
13.063176 -0.87316573 2.6204772 8
13.051107 -1.4971538 2.5817921 18
12.987027 -0.86807573 2.5109975 14
13.037428 -1.4955846 2.484237 14
13.09442 -0.87525415 2.4370432 24
0 -0 0 0
0 -0 0 0
13.811752 -0.53640318 2.4175978 27
0 -0 0 0
13.828249 -0.53704387 2.3212316 14
14.935579 -1.2920021 2.4609113 9
14.341326 -0.55697006 2.304661 1
15.263314 -1.3203527 2.4054115 15
18.327526 -0.71178102 2.8142989 9
15.161407 -1.3115371 2.2808201 19
18.204302 -0.70699543 2.6655872 11
0 -0 0 0
18.151157 -0.70493144 2.5286591 11
16.573732 -1.4337103 2.2567325 2
18.417965 -0.71529335 2.4350369 3
16.608759 -1.4367404 2.1433058 3
19.497391 -0.75721473 2.439532 5
0 -0 0 0
16.342775 -1.8747565 1.9403735 15
20.317787 -1.3580767 2.3300564 9
16.415056 -1.8830483 1.8323227 38
20.436668 -1.3660229 2.1992199 5
16.312714 -1.871308 1.7051721 27
29.259489 -1.9557558 2.9421265 11
35.472435 -4.0692096 3.4566555 9
29.25539 -1.9554818 2.7355018 11
35.495502 -4.0718555 3.2077918 10
43.361809 -2.8983798 3.7492638 10
35.635654 -4.0879331 2.9686706 2
49.24733 -3.2917783 3.9118905 34
35.928757 -4.1215563 2.7395222 4
49.130024 -3.2839375 3.5575161 27
36.141113 -4.1459169 2.5009186 2
49.261097 -3.2926986 3.2213445 35
55.268986 -2.1464663 3.4154208 9
42.381603 -3.6662199 2.4780927 3
55.391197 -2.1512125 3.0354216 4
42.326141 -3.661422 2.1779444 13
67.975166 -2.6399326 3.2497859 5
42.280514 -3.6574752 1.8792233 12
67.928261 -2.6381109 2.7729533 2
42.185009 -3.6492133 1.579457 11
67.985855 -2.640348 2.3005822 3
42.135201 -3.6449046 1.2825727 11
68.23996 -2.6502163 1.8329084 1
42.139095 -3.6452415 0.98776954 15
0 -0 0 0
42.061253 -3.6385078 0.69166368 14
0 -0 0 0
42.06105 -3.6384904 0.39744771 8
27.260736 -3.127207 0.16271904 15
49.257935 -3.2924871 0.12072963 15
27.229408 -3.1236134 -0.028458668 21
49.27354 -3.2935302 -0.22332235 16
27.26829 -3.1280735 -0.2197468 30
49.210938 -3.2893457 -0.56671327 16
27.258158 -3.1269114 -0.41086292 39
49.22176 -3.2900693 -0.91064328 12
27.266573 -3.1278765 -0.6022864 22
43.305336 -2.8946049 -1.1037425 3
27.237907 -3.1245883 -0.79280728 33
42.941593 -2.8702917 -1.3945946 10
27.231756 -3.1238825 -0.98381621 48
0 -0 -0 0
24.595955 -2.8215175 -1.06136 1
30.945635 -2.0684607 -1.4378855 1
16.091869 -0.62495548 -0.80283827 33
27.227457 -2.3553107 -1.457913 2
16.077906 -0.62441319 -0.9145714 36
24.436136 -2.1138475 -1.4799185 1
16.063171 -0.62384093 -1.0261599 48
21.880554 -1.892777 -1.478796 1
16.051651 -0.62339348 -1.1378589 50
19.767431 -1.7099813 -1.4749224 6
16.115068 -0.6258564 -1.2553451 13
18.477732 -1.5984157 -1.5087043 6
18.00169 -0.6991266 -1.5286664 1
17.33149 -1.4992602 -1.5371984 1
16.768679 -0.65124053 -1.541802 1
16.158035 -1.3977505 -1.5470788 1
15.783032 -0.61296123 -1.5622324 1
15.235096 -1.3179117 -1.5663031 2
14.495276 -1.6628212 -1.5458176 16
14.350057 -0.9591831 -1.5744388 2
13.749747 -1.577298 -1.5639004 14
13.545909 -0.9054324 -1.582013 2
13.130965 -1.5063146 -1.5868632 2
12.74635 -0.85198849 -1.5789363 3
12.398236 -1.4222598 -1.5866046 4
12.149363 -0.81208479 -1.5911987 3
11.772529 -1.350482 -1.5905081 4
11.580526 -0.77406281 -1.5990251 2
11.30479 -1.2968256 -1.6081053 4
11.079347 -0.74056304 -1.6087382 2
10.746995 -1.2328383 -1.6057138 3
10.535214 -0.70419234 -1.6049204 3
10.280121 -1.1792809 -1.6097224 2
10.117826 -0.67629337 -1.6137013 3
9.8982706 -0.38441637 -1.6117605 3
9.7138386 -0.84029537 -1.6213272 4
9.4966955 -0.36882052 -1.6144221 5
9.3018465 -0.80465609 -1.6194937 4
9.1664257 -0.35599393 -1.6241173 5
8.8982143 -0.76973981 -1.613402 4
8.7853975 -0.34119606 -1.6198655 6
8.608717 -0.74469692 -1.6231681 4
8.4205942 -0.32702827 -1.6133968 5
8.2725954 -0.71562076 -1.6197696 5
8.1660948 -0.31714433 -1.6237431 7
7.995543 -0.69165432 -1.6236492 6
7.8727231 -0.30575076 -1.6225524 6
7.7500558 -0.67041844 -1.6302991 5
7.6305976 -0.29634741 -1.6281958 7
7.5087695 -0.64954597 -1.6344439 6
12.657146 -1.4743818 2.9688156 30
12.964255 -0.88931984 2.9798346 11
12.968064 -1.5105994 2.9459908 11
13.023612 -0.89339155 2.8978884 13
13.283146 -1.547302 2.9197984 16
12.981012 -0.89046931 2.7934272 31
13.217506 -1.5396559 2.808378 24
12.90243 -0.88507867 2.6823912 27
13.053644 -1.5205683 2.6780534 1
13.049891 -0.89519429 2.6181221 18
0 -0 0 0
12.958061 -0.88889492 2.5056937 24
13.003563 -1.5147345 2.4782851 14
13.065406 -0.89625853 2.431931 24
0 -0 0 0
0 -0 0 0
13.775362 -0.55910796 2.4113955 25
12.999335 -1.1474043 2.2356927 5
13.850939 -0.56217545 2.3252017 14
14.929365 -1.3177611 2.4602633 9
14.146968 -0.57419056 2.2735856 1
15.135021 -1.3359135 2.3855577 11
18.484272 -0.75023103 2.8385651 9
15.123627 -1.3349079 2.2754843 32
18.112082 -0.73512471 2.6522679 9
16.858864 -1.488071 2.416117 8
18.082602 -0.7339282 2.5192833 16
16.54751 -1.4605888 2.2535062 2
18.452347 -0.74893522 2.4397519 3
16.610174 -1.46612 2.1438158 3
19.480173 -0.79065216 2.4375472 4
16.632561 -1.468096 2.0285451 3
16.205317 -1.8876944 1.9244421 11
20.497763 -1.4061021 2.3509741 13
16.399891 -1.9103596 1.831 31
20.48583 -1.4052836 2.2047715 9
16.305466 -1.8993603 1.7047589 24
29.307646 -2.0104411 2.9473176 12
16.542286 -1.9269465 1.6123092 0
29.37113 -2.0147958 2.746649 18
35.500198 -4.1352801 3.2088647 8
42.132118 -2.8901722 3.6433699 2
36.994514 -4.3093472 3.082495 4
49.348907 -3.3852282 3.9204233 14
35.885838 -4.180202 2.7368026 8
48.76997 -3.3455143 3.5318623 6
36.839359 -4.2912736 2.5497515 11
49.000408 -3.3613219 3.2046764 5
50.095257 -2.0332429 3.0959184 2
0 -0 0 0
55.311527 -2.2449584 3.0312662 2
42.232128 -3.7276773 2.173439 2
67.934532 -2.7572949 3.2480683 17
42.317841 -3.7352426 1.8811697 3
67.979454 -2.7591183 2.7752357 10
42.150692 -3.7204893 1.5784132 12
67.98114 -2.7591867 2.3005822 12
42.092918 -3.7153897 1.2814815 16
68.027473 -2.7610672 1.8273277 9
42.056973 -3.7122169 0.98599517 17
0 -0 0 0
42.070766 -3.7134342 0.69192582 15
0 -0 0 0
42.054626 -3.7120099 0.39744771 13
27.275091 -3.1771693 0.16283762 0
49.311966 -3.382694 0.12087636 11
27.243771 -3.173521 -0.028479433 0
49.355503 -3.3856807 -0.22372031 3
27.246885 -3.1738837 -0.21961869 12
49.296886 -3.3816597 -0.5677703 5
27.224842 -3.1713161 -0.41044369 13
49.199974 -3.3750117 -0.910348 13
27.269007 -3.1764605 -0.60246187 8
43.332127 -2.9724901 -1.1045561 6
27.260202 -3.1754351 -0.79361659 11
42.960438 -2.9469929 -1.3953718 10
27.222284 -3.1710181 -0.98367274 14
34.496132 -2.3663597 -1.3616819 1
24.535414 -2.8580348 -1.0589615 1
30.7586 -2.1099734 -1.4293642 1
16.118694 -0.65421808 -0.80423248 33
26.646364 -2.3519783 -1.427016 2
16.048859 -0.65138358 -0.91298246 27
24.273312 -2.1425176 -1.470282 1
16.066046 -0.65208113 -1.0264146 43
21.909019 -1.9338299 -1.4809458 1
16.066484 -0.65209895 -1.1389894 47
19.831964 -1.7504958 -1.4799634 7
16.117931 -0.65418708 -1.2556554 15
18.486824 -1.631765 -1.5096773 8
17.98451 -0.72994691 -1.5273136 0
17.293121 -1.5264013 -1.5340296 2
16.831196 -0.6831367 -1.5476576 1
16.250765 -1.4343961 -1.556195 1
15.666594 -0.63586843 -1.5508147 1
15.173314 -1.3392936 -1.5601896 1
14.488398 -1.6876971 -1.5453962 16
14.364226 -0.98535484 -1.57618 2
13.727227 -1.5990313 -1.5616547 14
13.576016 -0.93128532 -1.5857168 1
13.136201 -1.530185 -1.5878168 2
12.792368 -0.87752873 -1.5848242 3
12.360257 -1.4397984 -1.5820642 3
12.151882 -0.83359277 -1.5917171 2
11.766211 -1.3706001 -1.589976 2
11.602876 -0.79593211 -1.6023008 2
11.318243 -1.3184181 -1.6103443 4
11.030643 -0.75667816 -1.6018559 2
10.748753 -1.2520804 -1.6063012 3
10.506351 -0.7207129 -1.6007128 2
10.285894 -1.1981639 -1.610952 2
10.132395 -0.69506031 -1.6162161 3
9.9015274 -0.40187857 -1.6124028 4
9.6848412 -0.85484588 -1.6167341 4
9.5157366 -0.38622028 -1.6177715 5
9.3043509 -0.82126141 -1.6201773 4
9.1500473 -0.37137786 -1.6213279 5
8.8811703 -0.78390884 -1.6105578 4
8.8005104 -0.35719103 -1.6227648 6
8.5995703 -0.75905299 -1.6216912 5
8.4317856 -0.34222537 -1.6156533 5
8.2791538 -0.73077095 -1.6213014 4
8.149848 -0.33078223 -1.620625 7
7.9943218 -0.70562989 -1.6236492 5
7.84869 -0.31855896 -1.6177115 5
7.7215738 -0.68155539 -1.6245557 5
7.6300678 -0.30968565 -1.6281958 7
7.5076227 -0.66267073 -1.6344439 6
12.584917 -1.4882529 2.9524786 19
12.962683 -0.91196305 2.9798346 11
13.054528 -1.5437877 2.9662414 14
13.041509 -0.91750872 2.9022229 23
13.066974 -1.5452595 2.87287 16
13.073068 -0.91972893 2.8135781 19
13.366378 -1.5806659 2.8405914 24
12.893049 -0.90706414 2.6807666 50
0 -0 0 0
13.024833 -0.91633546 2.6134117 18
0 -0 0 0
12.968243 -0.91235423 2.5079668 24
12.973576 -1.5342144 2.4730768 28
13.03636 -0.91714644 2.4268188 38
0 -0 0 0
0 -0 0 0
13.734998 -0.58150178 2.4045038 25
12.961972 -1.166927 2.229614 16
13.873585 -0.58736914 2.3291721 27
14.92311 -1.3434823 2.4596152 27
13.952597 -0.59071428 2.2425101 6
15.109051 -1.3602219 2.381835 11
18.640942 -0.78920585 2.8628316 6
15.105514 -1.3599035 2.2731128 32
18.122633 -0.7672621 2.6540053 9
16.836519 -1.5157405 2.4132903 8
18.081293 -0.76551187 2.5192833 16
16.525194 -1.4877129 2.2508175 11
18.490629 -0.7828421 2.4449906 7
16.61154 -1.4954864 2.144326 4
19.546177 -0.82753098 2.4459834 4
16.602287 -1.4946535 2.0251682 3
16.190161 -1.9145976 1.9230363 8
20.483381 -1.4410664 2.3496099 25
16.317568 -1.9296645 1.8221823 22
20.487312 -1.4413429 2.2051985 5
16.337685 -1.9320434 1.7084775 16
29.454956 -2.0722432 2.9624915 5
16.653555 -1.9693972 1.623487 3
29.447023 -2.0716851 2.7540803 15
35.667004 -4.2178683 3.2246034 0
42.142906 -2.9648778 3.6447451 8
36.963177 -4.3711495 3.0805151 4
47.42569 -3.3365374 3.7680943 2
35.886406 -4.243814 2.7374072 7
48.485462 -3.4110956 3.5116849 4
36.926922 -4.3668618 2.5563359 11
47.807922 -3.3634286 3.1270661 3
50.167419 -2.1239495 3.1006024 2
0 -0 0 0
55.467136 -2.348325 3.0400145 2
147.96648 -13.320972 7.6161494 6
67.761955 -2.8688533 3.2400517 28
42.243595 -3.8030624 1.8781617 3
67.922623 -2.8756557 2.7731164 19
42.128204 -3.7926741 1.5778167 10
67.884354 -2.8740356 2.2974732 19
42.13813 -3.7935677 1.2830577 13
67.898697 -2.8746428 1.8240008 16
42.138046 -3.7935603 0.98804975 13
0 -0 0 0
42.052265 -3.7858377 0.69172919 8
0 -0 0 0
42.067997 -3.7872539 0.397636 15
31.515837 -3.726964 0.18819429 12
62.884384 -4.4241023 0.15416457 10
31.49254 -3.7242091 -0.032927658 16
62.907864 -4.4257541 -0.28518552 12
31.49552 -3.7245615 -0.25391611 22
62.900368 -4.4252267 -0.72453451 12
31.485054 -3.7233241 -0.47476828 21
0 -0 -0 0
31.504835 -3.7256632 -0.69618797 23
43.294956 -3.0459282 -1.1037425 5
31.467487 -3.7212467 -0.91628963 22
42.951241 -3.0217466 -1.3952422 9
0 -0 -0 0
34.607571 -2.4347448 -1.3662466 1
24.47879 -2.8947852 -1.0567343 1
30.647251 -2.1561246 -1.4243625 1
16.093578 -0.68135756 -0.80303746 32
26.681997 -2.4020989 -1.4291469 2
16.075626 -0.68059748 -0.9145714 25
24.321228 -2.1895661 -1.4734138 1
16.068869 -0.68031138 -1.0266695 43
21.814184 -1.9638647 -1.4747651 1
16.093224 -0.68134254 -1.1409678 45
19.733526 -1.7765493 -1.4728467 6
16.108797 -0.68200189 -1.2550347 12
18.329084 -1.6501117 -1.4970291 7
17.405802 -0.73691344 -1.4782745 0
17.326143 -1.5598201 -1.5371984 3
16.770281 -0.71000731 -1.5421683 1
16.192711 -1.4577805 -1.5508773 1
15.713184 -0.66525269 -1.5555394 2
15.222472 -1.3704329 -1.5654881 2
14.485427 -1.7130013 -1.5453962 12
14.370416 -1.0110012 -1.5770504 2
13.708625 -1.621139 -1.5598581 9
13.550589 -0.95332396 -1.5829389 1
13.058573 -1.5442659 -1.5787573 2
12.842297 -0.90349352 -1.5912029 3
12.357724 -1.4613857 -1.5820642 3
12.154364 -0.85509539 -1.5922353 2
11.775611 -1.3925469 -1.5915723 2
11.625185 -0.81786615 -1.6055764 3
11.272657 -1.3330691 -1.6041871 4
10.981916 -0.77261031 -1.5949734 2
10.754408 -1.2717826 -1.6074759 2
10.556358 -0.74267101 -1.6085269 2
10.295562 -1.2175208 -1.6127967 2
10.150867 -0.71414346 -1.6193591 4
9.8850327 -0.41850489 -1.6098332 4
9.6597538 -0.8696382 -1.6127973 3
9.5111084 -0.40267399 -1.6171017 5
9.3107529 -0.83821875 -1.6215446 3
9.1375799 -0.3868598 -1.6192359 6
8.9033098 -0.80153787 -1.6148241 4
8.7723618 -0.3713975 -1.6176914 6
8.6060619 -0.77477759 -1.6231681 5
8.4468756 -0.35761729 -1.6186619 6
8.2895947 -0.74628699 -1.6235988 4
8.1374979 -0.34451914 -1.6182864 6
7.9852686 -0.71888942 -1.622063 5
7.8637781 -0.33293059 -1.6209389 5
7.6930776 -0.69258434 -1.6188123 5
7.6295156 -0.32301256 -1.6281958 5
7.506454 -0.67578322 -1.6344439 6
12.578428 -1.5097854 2.951571 19
12.961068 -0.93462121 2.9798346 15
13.028565 -1.5638154 2.9609585 14
13.020411 -0.93890035 2.8978884 23
12.854729 -1.5429497 2.8267949 17
13.07534 -0.94286132 2.8144178 19
0 -0 0 0
12.883632 -0.92903727 2.679142 50
0 -0 0 0
12.999738 -0.93740964 2.6087015 30
0 -0 0 0
12.982297 -0.93615204 2.5109975 48
12.963071 -1.555954 2.4715889 28
12.999433 -0.93738765 2.4202459 38
13.167401 -1.5804797 2.4149556 7
0 -0 0 0
13.694596 -0.60377496 2.3976121 21
12.936357 -1.1874212 2.2255614 16
13.848889 -0.61057752 2.3252017 27
14.952184 -1.3724529 2.4647987 27
13.951543 -0.6151033 2.2425101 6
15.086974 -1.3848253 2.3787329 23
18.596087 -0.81987453 2.8561585 6
15.087356 -1.3848603 2.2707412 32
18.133125 -0.79946321 2.6557424 9
16.814127 -1.5433596 2.4104638 22
18.083885 -0.79729229 2.5198348 20
16.494938 -1.5140615 2.2470536 11
18.532812 -0.81708485 2.4507537 7
16.533834 -1.5176319 2.1346345 4
0 -0 0 0
16.57197 -1.5211322 2.0217915 9
15.847593 -1.9021825 1.8827388 8
20.480831 -1.4768704 2.3496099 18
16.144438 -1.9378126 1.8032242 20
20.468893 -1.4760096 2.2034903 3
16.397488 -1.968186 1.7150882 20
48.767902 -3.5166481 4.9055409 2
16.610558 -1.9937608 1.6196327 4
29.550611 -2.1308913 2.7641127 7
36.810654 -4.4183731 3.328692 1
42.074059 -3.0339558 3.6392443 10
36.801125 -4.4172292 3.0676484 13
47.562958 -3.4297597 3.7794714 3
35.855171 -4.3036871 2.735594 10
47.854683 -3.4507959 3.4664307 6
32.029949 -3.8445466 2.2177956 3
47.778088 -3.4452724 3.1255035 10
55.217087 -2.4344413 3.4129555 7
35.530155 -3.2612936 2.0784531 9
60.490528 -2.6669397 3.3155842 3
148.48796 -13.629631 7.644206 2
60.63987 -2.6735241 2.8997271 0
42.141376 -3.8681343 1.8739148 12
67.769753 -2.9878702 2.7670841 22
42.133453 -3.8674071 1.5782641 13
67.755424 -2.9872386 2.2932827 25
42.0956 -3.8639326 1.2819666 2
67.809685 -2.9896309 1.8217471 18
42.294621 -3.8822005 0.99187869 0
142.13385 -6.2664757 2.8266594 10
42.109306 -3.8651907 0.69277757 2
0 -0 0 0
42.073257 -3.8618817 0.39774892 8
31.529133 -3.7844336 0.18831289 8
62.884529 -4.5345964 0.15418413 18
31.501869 -3.7811613 -0.032944273 16
62.904022 -4.5360022 -0.28520361 17
31.469105 -3.7772284 -0.25375599 23
62.876579 -4.5340233 -0.72435063 19
31.530123 -3.7845523 -0.47554687 23
46.423527 -3.3475952 -0.85918653 3
31.494305 -3.7802532 -0.69610023 23
43.301533 -3.1224687 -1.1040475 6
31.472845 -3.7776773 -0.91663647 24
42.985764 -3.0996985 -1.3965377 11
0 -0 -0 0
34.447781 -2.4840257 -1.3601079 2
24.465757 -2.9366183 -1.0563916 1
30.61952 -2.2079701 -1.423251 1
16.144249 -0.71177655 -0.80562663 29
26.331707 -2.4169731 -1.4106086 2
16.062445 -0.70816994 -0.91389048 33
24.329292 -2.2331727 -1.4741366 1
16.075634 -0.70875138 -1.0271791 45
21.763025 -1.9976164 -1.4715403 0
16.092009 -0.70947337 -1.1409678 50
19.825726 -1.8197927 -1.4799634 2
16.139452 -0.71156508 -1.2575181 17
18.361902 -1.6854292 -1.4999478 6
17.360687 -0.76540756 -1.4745544 0
17.220228 -1.5806355 -1.5280442 6
16.780952 -0.7398479 -1.5432661 1
16.241686 -1.4908156 -1.5558152 2
15.719951 -0.69306988 -1.5563267 1
15.085327 -1.3846741 -1.5516305 2
14.438967 -1.7331054 -1.5407603 12
14.380524 -1.036978 -1.5783564 2
13.693932 -1.643679 -1.5585107 9
13.529088 -0.97558099 -1.580624 2
12.984876 -1.5585712 -1.5701745 11
12.844656 -0.92622674 -1.5916934 3
12.355151 -1.4829855 -1.5820642 5
12.156806 -0.8766259 -1.5927536 2
11.788902 -1.4150189 -1.5937008 4
11.61188 -0.83733135 -1.6039386 3
11.227054 -1.3475803 -1.5980302 3
11.008189 -0.79379934 -1.5989883 2
10.744311 -1.289637 -1.6063012 2
10.610265 -0.76510501 -1.6169423 3
10.316964 -1.2383425 -1.6164858 2
10.137782 -0.73103434 -1.6174732 4
9.8724527 -0.43526214 -1.6079061 3
9.6621485 -0.88688344 -1.6134535 3
9.5064507 -0.41912562 -1.6164318 4
9.301424 -0.85377276 -1.6201773 3
9.148694 -0.40335268 -1.6213279 6
8.9293346 -0.81961888 -1.6198016 4
8.7481194 -0.38569191 -1.6133428 5
8.612525 -0.79053903 -1.6246451 5
8.4383888 -0.37203634 -1.6171577 6
8.303916 -0.76221198 -1.6266623 4
8.1486425 -0.35926184 -1.620625 6
7.9800944 -0.73248857 -1.6212697 5
7.8827538 -0.34753922 -1.6249729 6
7.691855 -0.70603126 -1.6188123 5
7.6250305 -0.33617654 -1.6273617 5
7.4857974 -0.68711734 -1.6302052 6
12.571899 -1.5313169 2.9506633 28
12.912755 -0.95384753 2.9691062 15
13.00257 -1.5837747 2.9556761 35
13.003171 -0.96052641 2.8944211 49
12.840371 -1.5640181 2.824235 17
13.081471 -0.96631038 2.816097 29
0 -0 0 0
12.878079 -0.95128608 2.6783295 49
0 -0 0 0
12.962874 -0.95754975 2.6016359 30
0 -0 0 0
12.980639 -0.95886207 2.5109975 48
12.956428 -1.5781543 2.470845 45
12.966396 -0.95780993 2.4144034 21
13.156804 -1.6025611 2.4135225 7
15.123105 -1.117123 2.7068286 24
13.62267 -0.62448376 2.3852069 21
0 -0 0 0
13.824156 -0.63372016 2.3212316 13
14.9812 -1.4015498 2.4699824 22
13.954391 -0.63969028 2.2431443 5
15.123874 -1.4148974 2.3849373 23
18.551178 -0.85041398 2.8494852 7
15.218823 -1.4237803 2.2908993 32
18.155422 -0.83227193 2.6592171 9
16.633982 -1.5561739 2.385025 22
18.129955 -0.83110446 2.526453 20
16.464642 -1.5403314 2.2432897 18
18.57493 -0.85150284 2.4565165 9
16.456104 -1.5395328 2.1249433 8
0 -0 0 0
16.498121 -1.5434636 2.0131078 9
15.792978 -1.9236596 1.8766474 10
20.490105 -1.513576 2.3509741 18
16.069984 -1.9574004 1.7952882 17
20.450415 -1.5106441 2.2017822 3
16.358475 -1.9925396 1.7113698 26
0 -0 0 0
16.56357 -2.0175214 1.6153927 6
47.094616 -3.4788148 4.4057112 15
36.787045 -4.4808364 3.3272612 3
42.255486 -3.1213546 3.6554034 4
36.765636 -4.478229 3.0653389 15
42.140678 -3.112874 3.349031 4
35.903019 -4.373158 2.7398241 8
47.832657 -3.5333328 3.4652779 10
32.015251 -3.8996093 2.217247 6
47.791882 -3.5303209 3.1268055 6
55.515846 -2.5449302 3.4316916 8
35.492584 -3.3204699 2.076592 13
60.350117 -2.7665403 3.3081484 10
0 -0 0 0
60.531326 -2.7748473 2.8947644 4
42.166374 -3.944829 1.8753303 11
67.640663 -3.1007497 2.7620301 22
42.222141 -3.9500461 1.5818427 4
67.626297 -3.1000912 2.2890921 23
0 -0 0 0
67.668541 -3.1020279 1.8180982 21
0 -0 0 0
142.06276 -6.5123711 2.8254678 20
0 -0 0 0
0 -0 0 0
0 -0 0 0
31.840109 -3.8782761 0.19021049 0
54.112404 -3.9972091 0.13269304 6
31.594471 -3.8483562 -0.033048104 6
54.072121 -3.9942334 -0.24519153 8
31.54583 -3.8424315 -0.25442851 8
54.041187 -3.9919484 -0.62264466 7
31.491692 -3.8358374 -0.47506773 15
46.465462 -3.4323399 -0.86007243 4
31.539249 -3.84163 -0.69724107 13
43.284039 -3.1973326 -1.1037425 9
31.505877 -3.8375652 -0.91779268 17
34.639389 -2.5587642 -1.1255213 1
27.54257 -3.3548155 -0.99586821 0
34.268002 -2.5313301 -1.3531823 4
24.460581 -2.9794147 -1.0563916 1
30.563808 -2.2577066 -1.4208428 1
16.150961 -0.74038434 -0.80602491 35
25.909859 -2.4239683 -1.388235 3
16.101074 -0.73809755 -0.9161604 36
24.377028 -2.2805662 -1.4772683 1
16.074369 -0.73687333 -1.0271791 38
21.878708 -2.0468385 -1.4796022 0
16.086756 -0.73744112 -1.1406851 45
19.925776 -1.8641341 -1.4876732 2
16.154118 -0.74052912 -1.2587596 20
18.450224 -1.7260904 -1.5074069 7
17.267748 -0.79157954 -1.4667757 0
17.142063 -1.6037068 -1.5213547 7
16.855236 -0.77266943 -1.5502193 1
16.143904 -1.5103252 -1.546699 3
15.762455 -0.72257471 -1.5606575 2
15.16212 -1.4184755 -1.559782 2
14.392478 -1.7530721 -1.5361246 7
14.350929 -1.0600835 -1.5753094 2
13.679198 -1.6661912 -1.5571632 16
13.555096 -1.0012963 -1.5838649 2
12.942705 -1.5764829 -1.5654062 11
12.846974 -0.94898838 -1.5921841 3
12.364354 -1.506037 -1.5835776 5
12.151298 -0.8975997 -1.5922353 2
11.762797 -1.4327645 -1.5905081 4
11.602494 -0.85706037 -1.6028467 2
11.263995 -1.372008 -1.6036274 3
11.038366 -0.81538898 -1.6035764 2
10.734184 -1.3074745 -1.6051266 4
10.577358 -0.78133494 -1.6121334 3
10.342245 -1.2597345 -1.6207899 3
10.12861 -0.74818653 -1.6162161 4
9.8795652 -0.45289418 -1.6091909 3
9.6684389 -0.90452021 -1.6147658 3
9.5017624 -0.43557513 -1.6157618 4
9.2959929 -0.86967641 -1.6194937 4
9.1597786 -0.41989803 -1.62342 5
8.9161301 -0.83413875 -1.6176685 4
8.7631493 -0.40171599 -1.6162418 5
8.6150427 -0.80597091 -1.6253835 5
8.4337997 -0.38661811 -1.6164054 5
8.2986612 -0.77637213 -1.6258963 4
8.1636782 -0.3742353 -1.6237431 6
7.9709949 -0.7457177 -1.6196834 5
7.8938751 -0.36186713 -1.6273935 6
7.6906085 -0.71948642 -1.6188123 6
7.6244311 -0.34951541 -1.6273617 6
7.4651237 -0.69839144 -1.6259664 9
12.542142 -1.5499294 2.9443099 28
12.864416 -0.9728725 2.9583778 12
12.941697 -1.5993055 2.9424691 35
12.985898 -0.9820596 2.8909538 49
12.825984 -1.5850059 2.8216753 13
13.056365 -0.98738867 2.8110595 29
12.926756 -1.597459 2.7489064 2
12.880305 -0.97407413 2.679142 49
12.933781 -1.598327 2.6556897 1
12.929893 -0.97782427 2.5953557 21
0 -0 0 0
12.978945 -0.98153377 2.5109975 33
12.945849 -1.5998186 2.4693568 45
0 -0 0 0
13.15008 -1.6250569 2.412806 21
15.128984 -1.1441306 2.7082343 32
13.550715 -0.64490587 2.372802 12
0 -0 0 0
13.897896 -0.66142893 2.3338039 13
14.994447 -1.4292134 2.4725742 22
18.529381 -0.8818506 2.9788094 5
15.160716 -1.4450616 2.3911417 16
14.509573 -0.69053984 2.2288713 0
15.350204 -1.4631227 2.3110571 18
18.181614 -0.86529964 2.6632707 4
16.45779 -1.5686938 2.3601518 7
18.175962 -0.86503071 2.533071 13
16.390898 -1.5623177 2.2336111 18
18.466467 -0.87885636 2.4423714 9
16.354652 -1.558863 2.1121914 8
18.463196 -0.87870067 2.3110051 3
16.4282 -1.5658734 2.0049069 11
15.813249 -1.9541652 1.8794588 19
20.400249 -1.5427705 2.3409698 13
16.062597 -1.9849792 1.7948474 21
20.479471 -1.5487617 2.2051985 6
16.358915 -2.0215976 1.7117829 35
42.869751 -3.2420282 4.3133621 10
16.595583 -2.0508442 1.6188617 8
42.739822 -3.2322025 3.9988415 6
36.759392 -4.5426421 3.3254728 12
42.607616 -3.2222044 3.6863465 7
36.825012 -4.5507512 3.0709474 10
42.170959 -3.189182 3.3518751 8
0 -0 0 0
42.356335 -3.2032013 3.0689414 3
31.980669 -3.9520981 2.2153265 11
0 -0 0 0
55.802433 -2.6557503 3.4496884 5
0 -0 0 0
60.365135 -2.8728986 3.3092418 14
31.368448 -2.9899206 1.6153857 7
60.414639 -2.8752546 2.8894198 14
35.718948 -3.4045939 1.5888462 5
60.580997 -2.8831718 2.4739587 4
99.94519 -9.5263939 3.7450411 15
67.492989 -3.2121274 2.2847664 14
100.45829 -9.5753012 3.0603268 14
67.567162 -3.2156575 1.8155226 17
154.74426 -14.749632 3.6301959 6
67.582153 -3.2163708 1.3442423 6
154.84132 -14.758883 2.5482657 10
67.470016 -3.2110343 0.87124199 9
0 -0 0 0
33.845943 -4.1826043 0.20223652 2
54.0854 -4.0902128 0.13264413 12
33.874306 -4.1861095 -0.035440426 2
54.053093 -4.0877695 -0.24513726 14
33.9566 -4.1962795 -0.27393094 1
54.030144 -4.0860338 -0.62259871 15
33.862591 -4.1846614 -0.51094341 1
46.642841 -3.5273688 -0.86346847 1
33.925709 -4.1924615 -0.75015944 1
43.266426 -3.2720268 -1.1034374 8
31.630075 -3.9087727 -0.92160815 0
34.575073 -2.6147425 -1.1235781 1
27.627916 -3.4141948 -0.99916822 0
32.936348 -2.490814 -1.3007675 1
24.229269 -2.9941978 -1.0466261 1
30.643488 -2.3174162 -1.424733 1
16.121708 -0.7672646 -0.80463076 38
25.336975 -2.4150236 -1.3577641 1
16.083805 -0.76546067 -0.91525245 30
24.444553 -2.3299613 -1.4816048 1
16.069069 -0.76475942 -1.0269244 46
21.767828 -2.0748262 -1.4723467 0
16.061533 -0.76440072 -1.1389894 44
19.982052 -1.9046128 -1.492121 1
16.1528 -0.76874429 -1.2587596 23
18.340021 -1.7481009 -1.4986506 5
17.282263 -0.82249779 -1.4681286 0
17.087667 -1.6287313 -1.5167775 7
16.746433 -0.79699653 -1.5403384 1
16.184843 -1.5426774 -1.5508773 4
15.673695 -0.74594271 -1.5519959 1
15.187347 -1.4476 -1.5626351 2
14.488089 -1.7904049 -1.5466604 7
14.325267 -1.0833495 -1.5726976 2
13.652599 -1.6871572 -1.5544684 16
13.581059 -1.0270686 -1.5871058 2
12.900517 -1.5942166 -1.560638 11
12.825506 -0.96992993 -1.5897309 3
12.377458 -1.529578 -1.5855956 6
12.145758 -0.91852391 -1.5917171 4
11.740604 -1.4508771 -1.5878475 2
11.60098 -0.87732506 -1.6028467 2
11.30482 -1.3970238 -1.6097845 3
11.056664 -0.83616108 -1.6064441 2
10.735811 -1.3267071 -1.6057138 4
10.544432 -0.79742348 -1.6073247 3
10.312572 -1.274404 -1.6164858 3
10.135164 -0.76647264 -1.6174732 4
9.8905878 -0.47071305 -1.611118 4
9.678628 -0.92252988 -1.6167341 3
9.5009871 -0.45217112 -1.6157618 3
9.3023062 -0.88666028 -1.6208611 4
9.1472282 -0.43533501 -1.6213279 5
8.9068213 -0.84896421 -1.6162462 4
8.7820807 -0.41795692 -1.6198655 5
8.6214485 -0.82176352 -1.6268605 5
8.4409599 -0.40172231 -1.6179098 5
8.2972918 -0.79086614 -1.6258963 6
8.1708488 -0.3888672 -1.6253022 6
7.9618735 -0.7588954 -1.6180969 5
7.9049711 -0.37621352 -1.629814 7
7.7244148 -0.73626173 -1.6261966 6
7.6277165 -0.36301842 -1.6281958 6
7.4755664 -0.71254241 -1.6285096 9
12.512356 -1.5684596 2.9379568 28
12.862696 -0.99535871 2.9583778 12
12.880807 -1.6146461 2.9292622 26
12.972482 -1.0038543 2.8883531 48
12.869725 -1.6132569 2.8319142 13
13.035123 -1.0087017 2.8068612 35
12.904526 -1.6176193 2.7447762 2
12.882487 -0.99689025 2.6799543 22
12.903743 -1.6175212 2.6500988 1
12.869507 -0.99588573 2.58358 21
14.643093 -1.8355538 2.9003699 2
12.949798 -1.0020989 2.5056937 33
14.869474 -1.8639312 2.8368959 1
15.009755 -1.1615053 2.7956252 4
0 -0 0 0
15.119109 -1.1699675 2.7068286 32
13.553502 -0.66878647 2.3734913 12
15.386446 -1.4937224 2.6483841 9
13.971581 -0.68941617 2.3463762 6
15.00764 -1.4569478 2.4751661 25
14.484591 -0.7147302 2.3287604 24
15.193563 -1.4749974 2.3967254 16
14.512292 -0.71609718 2.2294779 5
15.327935 -1.4880422 2.3080928 18
18.148449 -0.89552033 2.658638 4
16.265841 -1.5790944 2.3330169 7
18.170465 -0.89660674 2.5325196 13
16.317131 -1.5840739 2.2239327 10
18.357962 -0.90585864 2.4282265 3
16.253185 -1.577866 2.0994399 18
18.453701 -0.91058278 2.3100128 3
16.334536 -1.5857636 1.9938114 11
15.778274 -1.9778517 1.87571 15
0 -0 0 0
15.8737 -1.9898138 1.7741258 24
20.512419 -1.58732 2.2090416 6
16.004011 -2.0061486 1.6750103 21
24.987474 -1.9336149 2.5144639 7
16.354942 -2.050139 1.5957351 4
42.749989 -3.3081381 4.0003276 13
36.77116 -4.6093702 3.3272612 14
42.570129 -3.29422 3.6835959 15
51.614212 -6.4699893 4.3051991 18
42.244835 -3.2690475 3.358196 9
32.009071 -4.0124288 2.4437251 5
42.287022 -3.2723119 3.0643291 9
31.965792 -4.0070033 2.2147779 14
42.323208 -3.2751122 2.7697468 2
48.855389 -2.4107289 3.0204804 4
30.79875 -2.9899552 1.8025665 7
56.658081 -2.7957466 3.1062825 2
31.076897 -3.016958 1.6006407 12
60.389572 -2.9798739 2.8884656 23
31.349752 -3.0434468 1.3947306 1
60.575863 -2.9890664 2.4739587 14
35.929981 -3.4880972 1.3465568 1
60.823189 -3.0012705 2.0591555 9
36.121498 -3.5066898 1.1005778 1
67.485565 -3.3300197 1.8134836 14
100.85822 -9.791357 2.3664632 1
67.536491 -3.3325326 1.3434479 18
0 -0 0 0
67.50425 -3.3309417 0.87175792 51
155.69313 -15.114753 1.4726087 2
33.822704 -4.2397728 0.20214164 13
54.118046 -4.1878366 0.13274194 12
33.851063 -4.2433276 -0.035423815 15
54.09771 -4.1862626 -0.2453724 3
33.869839 -4.2456813 -0.27329049 5
54.114635 -4.1875725 -0.62365574 17
33.898876 -4.249321 -0.51160216 8
53.913605 -4.1720161 -0.99820083 2
33.870708 -4.2457905 -0.74910635 9
43.264629 -3.3479626 -1.1035391 10
33.194233 -4.1609921 -0.96739364 4
33.251087 -2.573081 -1.0806974 1
27.685366 -3.4704399 -1.0014638 0
31.844044 -2.4641993 -1.2577969 1
24.017801 -3.0107002 -1.0377172 1
30.802727 -2.3836186 -1.4323281 1
16.152262 -0.79702014 -0.80622405 42
24.77215 -2.4048905 -1.3277194 2
16.078455 -0.79337811 -0.91502547 44
24.32917 -2.3618858 -1.4748594 1
16.075682 -0.79324138 -1.027434 45
21.919088 -2.127914 -1.4828269 1
16.072126 -0.79306585 -1.1398373 41
19.966782 -1.9383833 -1.4912313 1
16.167364 -0.79776531 -1.2600013 38
18.313129 -1.7778461 -1.4967046 4
17.670921 -0.87195712 -1.5012722 0
17.116522 -1.661679 -1.5195942 7
16.876303 -0.83274728 -1.5524151 1
16.110783 -1.5640414 -1.5440402 5
15.652489 -0.77235919 -1.5500275 1
15.141227 -1.4699166 -1.5581517 2
14.583607 -1.8280969 -1.5571963 2
14.335244 -1.1093094 -1.5740035 2
13.62991 -1.7085482 -1.5522227 19
13.567359 -1.0498879 -1.5857168 2
12.905593 -1.617753 -1.5615916 11
12.807959 -0.9911229 -1.5877682 3
12.347203 -1.5477573 -1.5820642 6
12.148088 -0.94005984 -1.5922353 4
11.761652 -1.4743568 -1.5910403 2
11.599429 -0.8976028 -1.6028467 2
11.2945 -1.4157979 -1.6086651 3
11.078865 -0.85731989 -1.6098852 2
10.7374 -1.345964 -1.6063012 2
10.566679 -0.81768519 -1.6109314 3
10.286797 -1.2894795 -1.6127967 3
10.145625 -0.78510261 -1.6193591 2
9.8936949 -0.48819625 -1.6117605 4
9.6887827 -0.94059104 -1.6187027 3
9.4962435 -0.46858433 -1.6150919 3
9.3125105 -0.90406233 -1.6229119 3
9.1346512 -0.45074189 -1.6192359 5
8.9249134 -0.86643434 -1.6198016 4
8.7970533 -0.43408337 -1.6227648 5
8.6043472 -0.83531356 -1.6239065 5
8.4520159 -0.41705778 -1.6201663 5
8.2998047 -0.80574846 -1.6266623 6
8.1819134 -0.4037298 -1.6276407 6
7.9800467 -0.77470618 -1.622063 5
7.8964744 -0.38964507 -1.6282003 7
7.7581859 -0.75316787 -1.633581 5
7.6309772 -0.3765443 -1.6290299 8
7.4898725 -0.72711992 -1.6319005 6
12.525053 -1.5922947 2.9415872 28
12.860937 -1.0178419 2.9583778 17
12.858611 -1.6346996 2.92486 26
12.966814 -1.0262213 2.8874865 48
12.913407 -1.6416657 2.8421533 16
13.126909 -1.0388914 2.8270123 35
12.886147 -1.6382003 2.7414722 31
12.970527 -1.0265151 2.6986384 22
12.873678 -1.636615 2.6445079 12
12.813007 -1.0140487 2.5725894 7
14.729415 -1.8725326 2.9181116 2
12.92062 -1.0225654 2.5003898 29
14.885688 -1.8923993 2.840616 7
15.090033 -1.1942573 2.8109617 4
0 -0 0 0
15.10919 -1.1957735 2.7054229 32
13.556248 -0.69267875 2.3741803 11
15.270032 -1.50937 2.6287966 9
14.183101 -0.72470886 2.3821077 6
15.103271 -1.4928864 2.4913647 25
14.443876 -0.73803359 2.3224185 24
15.230288 -1.5054414 2.4029298 18
14.514967 -0.74166608 2.2300847 5
15.305629 -1.5128886 2.3051283 21
14.652667 -0.74870211 2.1467156 0
16.073904 -1.5888289 2.3058822 6
18.164913 -0.92816615 2.5319681 10
16.29067 -1.6102552 2.2207065 10
18.332588 -0.93673372 2.4250832 3
16.214869 -1.6027626 2.0948491 18
18.448116 -0.94263679 2.3095164 9
16.240854 -1.6053312 1.982716 14
15.782676 -2.0064323 1.8766474 16
22.335955 -1.767715 2.5637896 3
16.039783 -2.0391181 1.7930838 19
20.462036 -1.6194091 2.2039173 6
16.032053 -2.0381355 1.6783156 12
24.944382 -1.9741515 2.5104711 12
16.240746 -2.064666 1.5849427 6
24.973125 -1.9764262 2.3371782 0
0 -0 0 0
42.552391 -3.3676867 3.6825647 11
32.047611 -4.0741739 2.673717 2
42.402031 -3.3557868 3.3711534 16
31.982224 -4.0658612 2.4422143 9
42.29715 -3.3474863 3.0654824 14
32.002285 -4.0684114 2.2177956 9
42.30946 -3.3484607 2.7692258 8
48.839134 -2.4955158 3.0197408 8
30.805397 -3.0449667 1.8032644 12
64.786301 -3.3103623 3.5522244 2
31.09543 -3.0736353 1.6018695 12
60.456089 -3.0891032 2.8919013 5
31.340408 -3.0978501 1.3945535 6
60.574535 -3.0951555 2.4741218 17
35.868137 -3.5453947 1.3444693 6
60.805874 -3.106976 2.0587499 13
36.039715 -3.5623543 1.0982741 8
61.122219 -3.1231401 1.6426309 6
35.994724 -3.5579073 0.84469849 3
67.486618 -3.4483397 1.3425738 18
35.991749 -3.5576131 0.59252697 2
67.494324 -3.4487333 0.87170625 41
35.915375 -3.5500638 0.33976033 3
33.716038 -4.2862787 0.20154862 16
47.423573 -3.7532024 0.11633751 11
33.760265 -4.2919011 -0.035336595 23
47.431206 -3.7538064 -0.21516439 6
33.8703 -4.3058901 -0.27335453 12
47.420582 -3.7529659 -0.54658347 2
33.871555 -4.3060493 -0.51130271 15
47.43557 -3.7541518 -0.87838131 1
33.819595 -4.2994442 -0.74814093 12
43.262691 -3.4239016 -1.1036408 10
33.551819 -4.2654018 -0.97803068 3
32.600899 -2.5801044 -1.0597105 1
27.893396 -3.5460534 -1.0092115 1
31.3496 -2.4810741 -1.2384365 1
