# .PCD v0.7 - Point Cloud Data file format
VERSION 0.7
FIELDS x y z intensity
SIZE 4 4 4 4
TYPE F F F F
COUNT 1 1 1 1
WIDTH 1485
HEIGHT 1
VIEWPOINT 0 0 0 1 0 0 0
POINTS 1485
DATA ascii
20.40484 -13.369448 -1.2757517 5
11.020556 -6.4950252 -0.71367639 31
20.507128 -13.436466 -1.4535224 1
11.026322 -6.4984236 -0.80355024 33
19.353065 -12.680314 -1.5335728 1
10.990292 -6.4771886 -0.89020193 38
17.94552 -11.758078 -1.5722529 0
10.970939 -6.4657826 -0.97784126 34
0 -0 -0 0
10.985405 -6.4743085 -1.0685508 12
14.202374 -9.3055315 -1.4824495 1
11.462626 -6.7555614 -1.2083839 4
13.210743 -8.6558056 -1.4898978 3
11.455094 -6.7511225 -1.3010606 4
12.822264 -8.4012699 -1.5539192 2
12.032852 -8.3733959 -1.5376313 3
10.724545 -6.7309389 -1.3727002 2
11.945457 -8.3125792 -1.629057 3
10.638774 -6.6771073 -1.4503367 4
11.287056 -7.854413 -1.6363581 3
10.626593 -6.6694622 -1.5373408 3
10.765998 -7.4918199 -1.6535878 1
10.731499 -6.7353029 -1.6422014 2
10.189988 -7.0909872 -1.6530699 1
10.268381 -6.4446416 -1.6573013 3
9.6698084 -6.7290058 -1.6523023 3
9.88276 -6.2026176 -1.6779609 6
9.3028231 -6.473629 -1.670197 2
7.4773269 -4.6929197 -1.3323973 5
8.7965937 -6.1213551 -1.6556833 3
6.9070778 -4.3350201 -1.2889599 5
6.8276062 -4.0238872 -1.2809813 11
6.8958716 -4.5182414 -1.3620483 19
6.6430559 -3.9151213 -1.3015505 25
6.5547538 -4.2947378 -1.3508294 25
6.5672035 -3.8704174 -1.3413813 36
6.2569275 -4.0995989 -1.3431871 15
6.3081574 -3.717747 -1.3411337 24
6.0549002 -3.9672287 -1.3519528 16
6.1069937 -3.5991902 -1.3494856 37
0 -0 -0 0
5.8756204 -3.4628291 -1.347667 28
0 -0 -0 0
0 -0 -0 0
0 -0 -0 0
5.5757036 -3.2860715 -1.3728523 30
0 -0 -0 0
51.547199 -36.004356 14.718423 3
51.456631 -32.420631 14.013399 6
51.543678 -36.0019 14.256086 6
51.075565 -32.180534 13.467368 14
51.12738 -35.711124 13.684784 8
51.008156 -32.138065 13.009295 10
51.053539 -35.65955 13.210907 9
51.037228 -32.156384 12.577482 23
51.163101 -35.736076 12.785514 12
50.967472 -32.112431 12.122938 22
51.074043 -35.67387 12.311596 12
50.997841 -32.131565 11.693729 24
51.207561 -35.767128 11.89214 18
51.035591 -32.15535 11.266853 21
51.093616 -35.687542 11.416279 11
50.977528 -32.118767 10.820127 19
51.005085 -30.180285 10.429896 31
51.067005 -33.587231 10.537322 18
50.981529 -30.166346 10.000061 22
51.087547 -33.600742 10.103364 22
51.00967 -30.182997 9.5813255 5
51.072498 -33.590843 9.6633301 5
51.657856 -30.566534 9.2743969 9
51.831375 -34.089966 9.3643379 4
51.674755 -30.576534 8.849534 7
51.825089 -34.085827 8.921608 5
51.736794 -30.613243 8.4326258 5
51.802921 -34.071251 8.4772711 5
51.724682 -30.606075 8.004055 10
51.860958 -34.109421 8.0465508 5
51.761181 -30.627674 7.5835538 5
51.889954 -34.12849 7.6114235 5
51.79789 -36.179459 7.5198083 8
51.820843 -32.650105 7.0734115 6
51.826557 -36.199478 7.0776162 8
51.75362 -32.60775 6.6326823 6
51.803757 -36.183556 6.6290421 7
51.761158 -32.612499 6.2026839 4
51.856686 -36.220524 6.1905508 7
51.762772 -32.613518 5.7725077 4
51.848331 -36.214691 5.7449675 6
51.876465 -32.68515 5.3544383 5
51.821068 -36.195644 5.2981563 7
49.626343 -31.267443 4.710628 2
49.711727 -34.722328 4.6572695 1
49.666405 -31.292685 4.3029962 1
49.6488 -34.678375 4.2271376 1
51.341854 -32.348316 4.0232325 5
51.350384 -30.3846 3.7471159 16
51.385822 -33.796921 3.6474431 16
51.320053 -30.366653 3.3279479 17
51.369102 -33.785923 3.2165194 14
51.31813 -30.365517 2.9112089 17
51.363209 -33.782047 2.7867765 17
51.310265 -30.360863 2.4944954 21
51.371506 -33.787502 2.3580544 22
32.456791 -19.205048 1.3147563 44
51.383984 -33.795712 1.9295801 18
32.450123 -19.201103 1.0515077 47
50.264725 -33.059563 1.4680316 1
49.406223 -29.234219 1.2007134 1
49.687298 -32.679783 1.0366095 2
49.071453 -29.036131 0.79516864 6
48.435619 -31.856544 0.60647982 16
48.469822 -33.854889 0.4125182 24
48.401657 -30.495821 0.19981019 17
48.569378 -33.924427 0.00052507961 20
48.526875 -30.574717 -0.19931042 11
48.699371 -34.015224 -0.41337833 1
48.588821 -30.613745 -0.59973186 1
37.435879 -26.147974 -0.63597482 157
20.326281 -12.806723 -0.41831452 4
37.526417 -26.21121 -0.95654958 2
20.438353 -12.877335 -0.58901221 12
32.406353 -22.634981 -1.101627 1
10.942762 -6.894568 -0.40554699 0
32.006001 -22.355345 -1.3603063 1
10.831889 -6.8247118 -0.49075103 35
15.526923 -10.845145 -0.79207754 0
10.832113 -6.8248529 -0.5801239 42
10.996016 -6.5064659 -0.62355351 47
20.424843 -13.433603 -1.2784674 4
10.992009 -6.5040956 -0.71256226 38
20.450266 -13.450325 -1.4511552 1
10.973726 -6.4932775 -0.80054253 37
19.404249 -12.762349 -1.5393928 0
10.968659 -6.4902792 -0.88936657 33
0 -0 -0 0
10.928737 -6.4666562 -0.97508502 29
15.240389 -10.023742 -1.4646306 2
11.025537 -6.5239348 -1.0735613 4
14.132828 -9.2952881 -1.4768829 2
11.433667 -6.76543 -1.206575 3
13.215566 -8.6919975 -1.4921517 3
11.41245 -6.7528753 -1.2975547 3
12.717797 -8.3646097 -1.5430273 2
11.985594 -8.3716202 -1.5334586 3
10.675761 -6.7263422 -1.3679578 3
11.934177 -8.3357077 -1.6295019 3
10.627095 -6.6956797 -1.4503367 3
11.257038 -7.8627434 -1.6339949 2
10.648519 -6.709178 -1.5422058 3
10.73012 -7.4947052 -1.6500856 1
10.689511 -6.7350054 -1.6375741 2
10.177587 -7.1087751 -1.6530699 1
10.283933 -6.4794674 -1.6616355 3
9.6547928 -6.7436175 -1.6517467 3
9.8216629 -6.188211 -1.6694201 6
9.2623024 -6.4694734 -1.6649485 2
7.382113 -4.6511545 -1.3168766 1
8.7891283 -6.1389742 -1.656294 3
6.979722 -4.3976254 -1.3039479 5
6.8409576 -4.0478716 -1.2848109 12
6.9011583 -4.5389543 -1.3646563 19
6.649785 -3.9347527 -1.3042135 29
6.5735893 -4.3235092 -1.3562653 25
6.5570431 -3.8798761 -1.3406881 36
6.2497568 -4.1105218 -1.3431871 14
6.2813373 -3.716738 -1.3368099 24
6.0545321 -3.9821203 -1.3534216 19
6.1040792 -3.6118526 -1.3502336 37
0 -0 -0 0
0 -0 -0 0
0 -0 -0 0
0 -0 -0 0
0 -0 -0 0
0 -0 -0 0
0 -0 -0 0
51.519318 -36.118935 14.728453 4
51.297802 -32.445866 13.985558 6
51.535019 -36.129944 14.271123 8
51.019276 -32.269699 13.467368 11
51.004143 -35.757759 13.668494 8
51.011425 -32.264732 13.024482 12
51.068073 -35.802578 13.230829 9
51.033932 -32.278969 12.590545 24
51.097397 -35.823139 12.784712 12
50.990837 -32.251713 12.141877 22
51.063068 -35.799068 12.324003 11
51.017967 -32.268871 11.71125 24
51.18684 -35.885845 11.901866 16
51.055782 -32.292789 11.283746 25
51.12141 -35.839973 11.436459 11
50.994549 -32.254059 10.835682 19
51.013256 -30.305544 10.442376 31
51.100368 -33.73719 10.55635 16
50.966061 -30.277506 10.007384 24
51.104523 -33.739933 10.118361 20
51.038353 -30.320454 9.5966454 7
51.066498 -33.714828 9.6733227 5
51.713142 -30.721327 9.2939425 7
51.79155 -34.19352 9.3679199 4
51.6689 -30.695044 8.8576994 7
51.834854 -34.222107 8.9335661 5
51.734329 -30.733912 8.4409609 5
51.845856 -34.22937 8.4940681 6
51.814312 -30.781427 8.0262318 7
51.847645 -34.230553 8.05375 6
51.827019 -30.788979 7.6010675 5
51.899841 -34.265015 7.6216416 5
51.718361 -36.25848 7.5174446 8
51.750301 -32.732075 7.0715761 6
51.769756 -36.29451 7.0785065 9
51.686504 -32.691719 6.6313887 6
51.870773 -36.365334 6.6457362 9
51.768021 -32.743282 6.21035 6
51.767262 -36.292763 6.1874342 6
51.769676 -32.744328 5.7796469 6
51.785 -36.305199 5.7449675 7
51.778885 -32.750149 5.3502626 5
51.806725 -36.320431 5.3031678 9
49.561543 -31.347683 4.7096672 1
49.732643 -34.866341 4.6649275 1
49.706074 -31.439098 4.3111839 1
49.767857 -34.891029 4.2424564 1
49.521122 -31.322115 3.8848376 1
51.338417 -30.498714 3.7501245 15
51.356701 -33.906425 3.6495743 20
51.349335 -30.505199 3.3332973 23
51.35334 -33.904205 3.2192359 7
51.319969 -30.487755 2.9143298 18
51.400822 -33.935555 2.7920291 27
51.349922 -30.505548 2.4990101 17
51.36911 -33.914619 2.3606603 21
32.430069 -19.265795 1.315035 45
51.404949 -33.938278 1.9325905 10
32.43716 -19.270006 1.0521766 114
51.394913 -33.931652 1.5027686 9
49.533871 -29.426682 1.2050629 0
49.47327 -32.662956 1.0333331 1
48.95533 -29.082989 0.79410893 5
48.456673 -31.991787 0.6074422 19
48.459743 -33.973942 0.41293681 13
48.409168 -30.618805 0.20006166 17
48.532978 -34.025288 0.00052532775 24
48.507202 -30.680813 -0.19944942 13
48.577656 -34.05661 -0.41284946 0
48.400059 -30.613043 -0.59806108 1
37.386879 -26.211027 -0.63591915 46
20.25318 -12.810139 -0.41726995 5
32.660431 -22.89743 -0.83353359 0
20.415829 -12.913014 -0.58901221 12
32.33403 -22.668598 -1.1005127 4
20.381454 -12.891273 -0.75618535 14
32.032375 -22.457115 -1.3630922 2
10.853733 -6.8649874 -0.49228317 22
15.498139 -10.865367 -0.79157615 0
10.823553 -6.8458991 -0.58030492 29
10.977765 -6.5215821 -0.62316358 40
20.408016 -13.473662 -1.2788854 3
10.960031 -6.5110464 -0.71122539 44
20.443403 -13.497025 -1.4523388 1
10.976096 -6.5205908 -0.80154508 42
0 -0 -0 0
10.960737 -6.511466 -0.88964498 36
13.366662 -8.8248606 -1.1737813 1
10.913996 -6.4836984 -0.97477883 31
13.416079 -8.8574867 -1.2907959 0
11.171764 -6.6368318 -1.0889266 3
14.060038 -9.2826366 -1.4709685 2
11.161545 -6.6307607 -1.1790789 3
13.21698 -8.7260389 -1.4940301 3
11.02073 -6.5471067 -1.2543159 1
12.630103 -8.3385735 -1.5341523 2
11.938379 -8.3697062 -1.5292859 3
10.630388 -6.723722 -1.3636466 3
11.92611 -8.361105 -1.630392 3
10.608666 -6.7099829 -1.449419 3
11.227025 -7.8709931 -1.6316315 2
10.670338 -6.7489901 -1.5470707 3
10.707265 -7.5066018 -1.6485845 1
10.634149 -6.7261004 -1.6308901 2
10.132689 -7.1037803 -1.6477902 1
10.299396 -6.514369 -1.6659698 2
9.6365118 -6.7559233 -1.6506355 3
9.7639933 -6.1757269 -1.6614488 2
9.2218266 -6.4651971 -1.6596999 3
7.367291 -4.6598125 -1.3156826 1
8.7816296 -6.1565862 -1.6569048 3
7.0555077 -4.4626093 -1.3195602 11
6.8508506 -4.0698981 -1.2880021 12
6.9096875 -4.5618739 -1.3679165 19
6.6462932 -3.9483764 -1.3048793 29
6.5956335 -4.3545313 -1.3623809 30
6.5468693 -3.8893113 -1.3399949 30
6.2392821 -4.1192627 -1.3424802 14
6.281601 -3.7317228 -1.3382511 24
6.050848 -3.9948561 -1.3541558 19
6.1045184 -3.626523 -1.3517298 40
0 -0 -0 0
5.8601136 -3.4813292 -1.3468915 33
0 -0 -0 0
0 -0 -0 0
0 -0 -0 0
5.5406413 -3.2915394 -1.3670422 40
0 -0 -0 0
51.516712 -36.251385 14.745774 4
51.139091 -32.470585 13.957716 7
51.535679 -36.264729 14.288813 8
50.99913 -32.381714 13.476948 11
50.884144 -35.806255 13.653063 6
51.054062 -32.416592 13.049793 12
51.08231 -35.945702 13.250751 12
51.027107 -32.399479 12.602792 24
51.03159 -35.910011 12.783909 11
51.017235 -32.393211 12.161607 18
51.106407 -35.962658 12.349595 11
51.037815 -32.406277 11.728772 22
51.172325 -36.009045 11.913088 16
51.052452 -32.415573 11.295496 25
51.152096 -35.994808 11.45736 15
51.011295 -32.389442 10.851235 24
51.02457 -30.432877 10.455549 21
51.087414 -33.856812 10.565864 16
50.987659 -30.410864 10.022033 24
51.114647 -33.874859 10.132055 20
50.995525 -30.415554 9.5985594 7
51.060272 -33.838825 9.6833153 5
51.703579 -30.837862 9.3018827 7
51.754875 -34.299156 9.3720989 5
51.666225 -30.815582 8.8664474 5
51.844353 -34.358456 8.9455252 5
51.731636 -30.854597 8.449296 5
51.792645 -34.324184 8.4951525 6
51.79797 -30.894161 8.0320406 7
51.824196 -34.345097 8.0594063 6
51.895905 -30.952574 7.6190825 6
51.912769 -34.403797 7.6323462 7
51.791428 -36.444695 7.5372996 10
51.632713 -32.784008 7.0633159 11
51.764847 -36.425991 7.0865173 8
51.619297 -32.77549 6.630095 10
51.865788 -36.497021 6.6532483 9
51.697353 -32.82505 6.2087359 7
51.785236 -36.440338 6.1971745 8
51.685551 -32.817554 5.7766409 6
51.816025 -36.462006 5.7554617 6
51.677914 -32.812706 5.3457389 6
51.81171 -36.458965 5.310184 8
49.560608 -31.468332 4.7147908 1
49.661926 -34.946201 4.6640086 1
49.755531 -31.592096 4.3202491 2
49.661194 -34.945686 4.2385573 1
49.621372 -31.506912 3.8970101 1
51.343395 -30.623035 3.7543864 18
51.350704 -34.0313 3.6533632 14
51.388626 -30.650013 3.3393154 21
51.377335 -34.04895 3.2244604 7
51.294132 -30.593653 2.9158902 22
51.401474 -34.064949 2.7952898 27
51.348087 -30.625834 2.5015185 15
51.403137 -34.066051 2.3649526 14
32.447891 -19.353083 1.3171254 53
51.348972 -34.030151 1.9327159 5
32.448124 -19.35322 1.0536263 95
51.422279 -34.078735 1.5053056 4
51.398949 -30.65617 1.2517364 8
49.699558 -32.93705 1.0392586 2
48.787701 -29.098728 0.79221249 2
48.407433 -32.080727 0.60752589 16
48.505051 -34.13213 0.41382989 18
48.436699 -30.754707 0.20039697 16
48.480057 -34.114544 0.00052539865 17
48.494102 -30.791159 -0.19961622 13
48.488701 -34.120625 -0.41259897 1
48.430973 -30.751074 -0.59910536 0
0 -0 -0 0
20.200403 -12.826174 -0.4166432 6
32.430725 -22.820917 -0.82868654 0
20.406763 -12.957201 -0.5894022 13
32.222473 -22.674376 -1.0980612 11
20.412926 -12.961114 -0.75819111 20
32.051971 -22.554396 -1.3655994 2
10.905848 -6.9246292 -0.49519429 4
15.577203 -10.961397 -0.79659033 0
10.835202 -6.8797731 -0.58157235 20
10.956071 -6.5345926 -0.62257862 38
20.407778 -13.524707 -1.2803476 3
10.938358 -6.5240278 -0.71055692 46
20.456427 -13.556948 -1.4549428 1
10.944127 -6.5274687 -0.80004126 46
13.886719 -9.2030506 -1.1042147 2
10.945929 -6.528543 -0.88936657 39
13.317987 -8.8261385 -1.1708578 4
10.902662 -6.5027375 -0.97477883 39
13.287598 -8.8059988 -1.2799112 2
11.036922 -6.5828147 -1.0769016 1
13.924237 -9.2279148 -1.4584436 3
11.098635 -6.6196227 -1.1736519 2
13.20505 -8.7512932 -1.4944059 2
11.022963 -6.5744891 -1.255874 1
12.635434 -8.3737946 -1.5365728 2
11.913993 -8.3836622 -1.5280341 3
10.585066 -6.7209496 -1.3593353 3
11.878989 -8.3590307 -1.6259422 3
10.590231 -6.7242293 -1.4485013 5
11.197029 -7.8791475 -1.6292683 1
10.61497 -6.7399373 -1.5407462 3
10.684409 -7.5184269 -1.6470835 2
10.582209 -6.7191353 -1.6247203 2
10.087848 -7.0986366 -1.6425105 2
10.261244 -6.5153399 -1.6616355 2
9.6214666 -6.7704525 -1.65008 2
9.7431726 -6.1863928 -1.6597407 2
9.2040548 -6.476728 -1.6585337 3
7.3524685 -4.6684237 -1.3144886 1
8.7644043 -6.1673536 -1.6556833 3
6.9943419 -4.4410324 -1.3095683 11
6.8606939 -4.0919633 -1.2911935 9
6.905004 -4.5761061 -1.3685684 19
6.6427789 -3.9619908 -1.305545 26
6.6274529 -4.3921666 -1.3705347 30
6.5333042 -3.8966961 -1.3386084 30
6.2288013 -4.1279712 -1.3417733 15
6.281836 -3.7467115 -1.3396925 27
6.0471444 -4.0075827 -1.3548902 25
6.0948043 -3.635159 -1.3509817 40
0 -0 -0 0
0 -0 -0 0
0 -0 -0 0
0 -0 -0 0
0 -0 -0 0
0 -0 -0 0
0 -0 -0 0
51.513062 -36.384983 14.763097 5
0 -0 0 0
51.538475 -36.402935 14.307388 9
50.981377 -32.496899 13.487399 10
50.938911 -35.979446 13.684784 6
51.098953 -32.571846 13.075949 15
51.137009 -36.11937 13.281465 12
51.022644 -32.523205 12.615855 13
51.076923 -36.076927 12.811204 11
51.006248 -32.512753 12.172654 18
51.148598 -36.127552 12.375186 13
51.026871 -32.525898 11.739437 22
51.160015 -36.135616 11.925057 12
51.048183 -32.539486 11.307247 25
51.143085 -36.123661 11.469611 15
51.023746 -32.523907 10.866083 24
51.02145 -30.553284 10.465948 21
51.073494 -33.977539 10.575377 23
51.008331 -30.545427 10.036681 28
51.127033 -34.013157 10.146401 22
50.955296 -30.513668 9.6011133 8
51.062939 -33.970516 9.6951828 5
51.696529 -30.957542 9.3104343 9
51.78643 -34.451832 9.3888159 5
51.700005 -30.959623 8.8816118 5
51.803383 -34.463108 8.9489422 5
51.765438 -30.998808 8.4637423 5
51.741848 -34.422173 8.4967775 4
51.780758 -31.00798 8.0378494 8
51.803101 -34.462921 8.0655775 5
51.844578 -31.0462 7.6195827 6
51.908134 -34.532795 7.6406183 7
51.821072 -36.602539 7.5510087 7
51.574745 -32.875126 7.0633159 11
51.775127 -36.570087 7.0967536 8
51.561344 -32.866585 6.630095 9
51.853249 -36.625263 6.6599259 8
51.689648 -32.948372 6.214788 9
51.785839 -36.577652 6.2049665 7
51.617451 -32.902348 5.7755136 7
51.845924 -36.620094 5.7659559 6
51.549324 -32.858925 5.3384309 4
51.760273 -36.559597 5.3115206 6
49.609196 -31.622234 4.7247171 1
49.912872 -35.254726 4.6934152 1
49.679482 -31.667036 4.3184943 1
49.977482 -35.300362 4.2708654 2
49.532001 -31.573029 3.8943639 2
51.323494 -30.734158 3.7568934 19
51.370316 -34.175003 3.6590462 15
51.358414 -30.755068 3.3408756 14
51.406925 -34.199356 3.2301025 8
51.342861 -30.745756 2.921742 18
51.367855 -34.173363 2.7967389 15
51.32822 -30.736986 2.5031905 15
51.349556 -34.161194 2.3652592 15
32.45483 -19.434994 1.3187978 41
51.391987 -34.189423 1.9366045 4
32.434479 -19.422808 1.0542953 95
51.348705 -34.160625 1.5049154 2
51.365322 -30.759205 1.2522383 13
49.60136 -32.998177 1.038422 3
48.835758 -29.244421 0.79383004 2
48.433964 -32.221542 0.60857195 19
48.493713 -34.252342 0.41424853 21
48.348583 -30.818686 0.20025726 13
48.547165 -34.290096 0.00052678131 19
48.527355 -30.93264 -0.19997762 16
48.702812 -34.400032 -0.41493708 0
48.757729 -31.079485 -0.60382533 0
48.718872 -34.411373 -0.83071673 1
20.35984 -12.977909 -0.42040366 1
32.253185 -22.781242 -0.82517654 1
20.444548 -13.031904 -0.59115726 11
32.188919 -22.735851 -1.098284 15
20.423721 -13.018629 -0.75944477 23
32.119846 -22.687063 -1.3701959 3
20.415394 -13.01332 -0.92802966 11
15.541504 -10.977359 -0.79575467 0
20.409445 -13.009529 -1.0966949 12
10.872534 -6.5108228 -0.61848396 37
20.450377 -13.604972 -1.2845256 4
10.906265 -6.5310221 -0.70922011 30
20.422482 -13.586414 -1.4542327 1
10.918884 -6.538579 -0.79903871 43
13.348727 -8.880475 -1.0626811 2
10.913843 -6.5355597 -0.88769585 35
13.275809 -8.8319645 -1.168519 9
10.877476 -6.513782 -0.97355378 35
13.262068 -8.8228226 -1.2789507 6
11.03896 -6.6104841 -1.0782377 1
13.519745 -8.9942465 -1.417738 2
11.011741 -6.5941839 -1.1656926 1
13.222733 -8.7966537 -1.4981625 3
10.960106 -6.5632634 -1.250031 1
12.574241 -8.3652334 -1.5309252 3
11.892672 -8.4000959 -1.5271996 3
10.549706 -6.7246666 -1.3563174 3
11.834988 -8.3593521 -1.6219374 3
10.571639 -6.7386465 -1.4475837 5
11.189588 -7.9034896 -1.6302135 1
10.559528 -6.730927 -1.5344218 2
10.667875 -7.5349908 -1.6465831 2
10.577017 -6.7420745 -1.6257485 2
10.094728 -7.1301627 -1.6456783 2
10.222988 -6.5164075 -1.6573013 2
9.6224375 -6.7965722 -1.6523023 2
9.7222176 -6.1972022 -1.6580325 6
9.1893721 -6.4906864 -1.6579504 3
7.4042487 -4.719667 -1.3252339 1
8.7502718 -6.1805391 -1.6550727 3
6.9365139 -4.4215202 -1.3002009 10
6.8331313 -4.0918984 -1.2873639 9
6.9034848 -4.5926642 -1.3698725 21
6.6391568 -3.9757404 -1.3062108 26
6.65907 -4.4300632 -1.3786886 36
6.5196538 -3.9041781 -1.337222 28
6.2378922 -4.1498671 -1.3453079 15
6.2819619 -3.7618408 -1.3411337 27
6.0498796 -4.0247884 -1.3570933 25
6.0850048 -3.6438963 -1.3502336 31
0 -0 -0 0
5.8680549 -3.5139797 -1.351544 41
0 -0 -0 0
0 -0 -0 0
0 -0 -0 0
5.498837 -3.2928803 -1.3595721 31
0 -0 -0 0
51.595589 -36.578522 14.805035 5
0 -0 0 0
51.535282 -36.53577 14.324195 9
51.00346 -32.636398 13.508303 10
50.993919 -36.15197 13.716505 4
51.045273 -32.663151 13.076792 15
51.195148 -36.294632 13.313008 12
51.00864 -32.639713 12.62647 13
51.125717 -36.245411 12.839302 13
50.998924 -32.633495 12.184491 20
51.143036 -36.257687 12.389144 13
51.019596 -32.646721 11.750864 18
51.157726 -36.268101 11.939272 12
51.044262 -32.662506 11.318997 25
51.13448 -36.251621 11.481864 13
51.036499 -32.657539 10.880931 18
51.01865 -30.672806 10.476348 22
51.073074 -34.106094 10.58761 23
50.995461 -30.658867 10.044671 28
51.100368 -34.124321 10.152922 22
50.989906 -30.655527 9.6177101 8
51.069244 -34.103535 9.707674 6
51.696579 -31.080385 9.3202066 9
51.818275 -34.603733 9.4055319 7
51.737419 -31.104937 8.8973598 6
51.766159 -34.568928 8.9529276 5
51.79948 -31.142248 8.4781895 7
51.757454 -34.563118 8.5092402 4
51.770687 -31.124937 8.044714 8
51.828602 -34.61063 8.0789471 5
51.793667 -31.138754 7.6200829 5
51.90387 -34.660892 7.64889 7
51.750584 -36.688404 7.5500631 6
51.754883 -33.117222 7.0958977 7
51.827915 -36.743229 7.1127753 7
51.738327 -33.106628 6.6602788 7
51.873577 -36.7756 6.6707768 10
51.77951 -33.132984 6.2325411 7
51.829044 -36.74403 6.217824 6
51.684013 -33.071873 5.7894158 7
51.843628 -36.754368 5.772831 6
51.72681 -33.099258 5.3627901 4
51.894691 -36.790573 5.3319006 7
49.715092 -31.811989 4.7400875 1
49.851215 -35.341854 4.6934152 1
49.724903 -31.818268 4.3272676 1
49.68137 -35.221443 4.2508121 2
49.648235 -31.769207 3.9078593 2
51.310787 -30.848442 3.759902 18
51.393566 -34.320114 3.6649663 19
51.33884 -30.865309 3.3431044 14
51.436806 -34.348991 3.235745 11
51.367828 -30.882736 2.9262283 17
51.371227 -34.305199 2.8001804 27
51.360077 -30.878077 2.5073709 16
51.366264 -34.301884 2.3687847 17
32.434532 -19.499891 1.3193552 36
51.458542 -34.363506 1.9413711 5
32.458759 -19.514458 1.056191 120
51.34882 -34.290234 1.5066717 2
32.632217 -19.618744 0.796377 0
49.387329 -32.98037 1.0351456 1
51.427444 -30.918577 0.83683473 3
48.470745 -32.368286 0.6097436 13
48.472965 -34.36475 0.41458341 20
48.399124 -30.969919 0.20069034 14
48.503517 -34.386406 0.00052695855 19
48.493465 -31.030289 -0.20006101 13
48.77644 -34.579895 -0.41607833 1
48.57534 -31.08268 -0.60223812 0
48.671741 -34.505669 -0.83093953 1
20.549372 -13.149254 -0.42479083 0
32.330791 -22.920809 -0.82818508 0
20.472279 -13.099924 -0.59261978 14
32.181778 -22.815166 -1.0993984 13
20.417789 -13.065057 -0.76007158 31
32.063866 -22.731571 -1.3694994 2
20.402733 -13.055422 -0.92848927 15
0 -0 -0 0
20.440542 -13.079616 -1.0995919 14
10.888538 -6.5462737 -0.62004381 31
20.463125 -13.665072 -1.2868234 3
10.860612 -6.5294838 -0.70699197 41
13.989877 -9.3423014 -0.9973436 0
10.845861 -6.5206161 -0.79452723 30
13.273451 -8.8638792 -1.0579193 2
10.861373 -6.5299416 -0.88435453 39
13.233822 -8.8374157 -1.1661803 15
10.893427 -6.5492125 -0.97600377 34
13.233375 -8.8371172 -1.2776701 20
10.955657 -6.5866261 -1.0712231 1
13.308496 -8.8872824 -1.3972112 3
10.921681 -6.5661993 -1.1573713 1
13.184166 -8.8042555 -1.4955329 3
10.965683 -6.5926538 -1.2519786 2
12.533134 -8.369503 -1.5276978 2
11.826056 -8.3840437 -1.5205233 3
10.517848 -6.7302232 -1.3537307 2
11.800911 -8.3662167 -1.6192676 3
10.55316 -6.7528186 -1.4466661 5
11.185486 -7.929913 -1.6316315 1
10.521001 -6.7322407 -1.5305297 2
10.654697 -7.5536127 -1.6465831 2
10.575249 -6.766953 -1.6272911 2
10.101665 -7.1615429 -1.648846 1
10.198237 -6.5257092 -1.6551343 2
9.6267099 -6.8248243 -1.6550802 2
9.7347231 -6.2291126 -1.6620182 6
9.1683359 -6.4998617 -1.6562009 3
7.4592929 -4.7730966 -1.336576 2
8.7846117 -6.2278218 -1.6636229 3
7.0951772 -4.5401044 -1.3314257 10
6.8056679 -4.0916204 -1.2835344 9
6.9085808 -4.613482 -1.3724805 21
6.6355824 -3.9893637 -1.3068765 36
6.6480446 -4.4394984 -1.3780091 36
6.5060716 -3.9115007 -1.3358356 28
6.247005 -4.1716881 -1.3488426 16
6.2821255 -3.7768626 -1.3425751 31
6.0526505 -4.0419002 -1.3592963 21
0 -0 -0 0
0 -0 -0 0
0 -0 -0 0
0 -0 -0 0
0 -0 -0 0
0 -0 -0 0
0 -0 -0 0
0 -0 -0 0
51.680763 -36.774715 14.847883 4
51.548096 -33.11195 14.116684 14
51.531776 -36.668701 14.341001 11
51.025208 -32.776073 13.529205 10
51.054852 -36.329334 13.749941 4
50.99472 -32.756493 13.078481 11
51.112545 -36.370384 13.308027 12
50.994377 -32.756268 12.637083 19
51.119801 -36.375549 12.853753 13
50.961639 -32.735241 12.189226 20
51.140377 -36.39019 12.403878 12
50.979012 -32.746399 11.754673 18
51.158337 -36.402969 11.954234 17
51.043373 -32.787743 11.331483 18
51.151226 -36.397911 11.499883 13
51.00919 -32.765785 10.887294 18
51.029076 -30.800552 10.48952 22
51.075638 -34.236954 10.600522 20
50.985729 -30.774389 10.053327 26
51.076744 -34.237698 10.160095 19
51.027561 -30.799637 9.6349449 10
51.065388 -34.230083 9.7182922 6
51.699749 -31.205362 9.3305902 9
51.747902 -34.687588 9.4037418 7
51.767708 -31.246382 8.9119406 6
51.781334 -34.709995 8.9660254 5
51.758568 -31.240866 8.4804125 7
51.776009 -34.706429 8.5222445 5
51.763767 -31.244003 8.0521059 6
51.853737 -34.75853 8.0923166 8
51.800358 -31.26609 7.6290903 5
51.853138 -34.758129 7.6503491 7
51.76733 -36.836315 7.561882 7
51.780537 -33.261261 7.1073699 7
51.870537 -36.909756 7.1274614 7
51.807564 -33.278622 6.6766644 5
51.838432 -36.886909 6.6745324 6
51.751694 -33.242733 6.2361727 5
51.735592 -36.813732 6.2143173 6
51.854008 -33.308453 5.8149662 6
51.896198 -36.928017 5.7858582 5
51.85331 -33.308006 5.3819289 5
51.872578 -36.911205 5.3362441 6
49.431324 -31.752243 4.7183127 1
49.721169 -35.380318 4.6869822 1
49.743088 -31.952505 4.3337007 1
49.892872 -35.502499 4.2742081 2
49.569157 -31.84078 3.9060071 2
51.328602 -30.981342 3.7651668 17
51.373341 -34.436512 3.6678081 10
51.366913 -31.004467 3.3484538 15
51.383366 -34.44323 3.2361629 10
51.32407 -30.978607 2.9268134 18
51.361015 -34.428249 2.8028975 19
51.295803 -30.961544 2.5068691 19
51.352753 -34.42271 2.3709307 12
32.441494 -19.581305 1.3210276 51
51.421684 -34.468918 1.9422491 6
32.417778 -19.566992 1.0559679 99
51.47818 -34.506786 1.5122335 1
32.467796 -19.597181 0.79319853 3
49.472496 -33.162338 1.0381432 1
32.437496 -19.578894 0.52838331 2
48.400845 -32.443989 0.60957623 14
48.474789 -34.493427 0.41511369 18
48.351685 -31.058735 0.20071828 14
48.577 -34.566158 0.00052841206 13
48.489674 -31.147373 -0.20026952 11
38.736816 -27.564133 -0.33084741 2
48.473862 -31.137215 -0.60165334 0
38.85783 -27.650244 -0.66421688 2
0 -0 -0 0
32.378689 -23.03985 -0.83044153 0
20.449366 -13.135663 -0.59261978 16
32.161423 -22.88525 -1.1000669 5
20.411753 -13.111503 -0.76069838 25
32.056686 -22.810722 -1.3708924 2
20.379896 -13.09104 -0.92848927 14
0 -0 -0 0
20.39077 -13.098023 -1.0981433 15
10.846303 -6.546701 -0.61828899 46
20.46245 -13.716364 -1.2882857 4
10.856029 -6.5525718 -0.70743752 45
13.923785 -9.333374 -0.99379271 1
10.837873 -6.5416131 -0.79477787 41
13.27784 -8.9003839 -1.0595065 3
10.860198 -6.5550885 -0.88518983 39
13.215052 -8.8582964 -1.1658878 30
10.858069 -6.5538034 -0.97386009 41
13.221231 -8.8624382 -1.2779903 48
10.964611 -6.6181107 -1.0732273 1
13.273094 -8.8972034 -1.395124 3
10.882912 -6.5687981 -1.154477 2
13.185308 -8.8383579 -1.4974113 4
10.855311 -6.5521388 -1.240682 3
12.458995 -8.3514967 -1.5204365 2
11.762774 -8.3700905 -1.5142642 3
10.512767 -6.7528825 -1.3545929 2
11.770086 -8.3752937 -1.6170427 4
10.53466 -6.7669458 -1.4457484 5
11.187799 -7.9609537 -1.6339949 1
10.485842 -6.7355871 -1.5271242 2
10.647955 -7.5768142 -1.6475838 2
10.596787 -6.8068533 -1.6324326 2
10.102064 -7.1883721 -1.6509581 1
10.173486 -6.534945 -1.6529672 2
9.6018639 -6.8324423 -1.6528578 2
9.7504778 -6.2632256 -1.6665733 2
9.147296 -6.5089831 -1.6544514 2
0 -0 -0 0
8.8188124 -6.2752428 -1.6721729 3
7.2534471 -4.6592565 -1.3626504 14
6.7849884 -4.0953393 -1.2809813 9
6.9136243 -4.6343317 -1.3750885 25
6.618474 -3.9948332 -1.3048793 36
6.6370049 -4.4489088 -1.3773295 28
6.4924841 -3.9187872 -1.3344491 27
6.2070055 -4.1606722 -1.3417733 16
6.2889929 -3.7959626 -1.3454577 31
6.0782418 -4.0743594 -1.3666399 21
0 -0 -0 0
0 -0 -0 0
5.8221474 -3.5141799 -1.3437899 26
0 -0 -0 0
0 -0 -0 0
0 -0 -0 0
5.5107498 -3.3262241 -1.3653821 23
0 -0 -0 0
51.616447 -36.864929 14.847883 4
51.513115 -33.216728 14.122971 12
51.569237 -36.831211 14.369307 11
51.020378 -32.899002 13.543139 10
51.115311 -36.507015 13.783377 6
51.013012 -32.894253 13.097886 11
51.029831 -36.445961 13.303046 9
51.006195 -32.889858 12.654228 19
51.116779 -36.50806 12.869007 10
50.92416 -32.83696 12.193961 5
51.115059 -36.506832 12.413184 12
50.93824 -32.846039 11.758483 5
51.155426 -36.535664 11.968449 17
51.052116 -32.919468 11.346171 18
51.167618 -36.544369 11.5179 10
50.981659 -32.874039 10.893657 5
51.039215 -30.928427 10.502692 26
51.064816 -34.359127 10.610715 20
50.992615 -30.900188 10.065311 26
51.101997 -34.384144 10.177049 19
51.037849 -30.927599 9.6470728 10
51.064522 -34.358929 9.7295341 6
51.624882 -31.283327 9.3269262 9
51.677387 -34.771297 9.4019508 7
51.797661 -31.388027 8.9265213 7
51.796181 -34.851227 8.9791222 8
51.717472 -31.339432 8.4826345 6
51.744904 -34.816727 8.5271215 5
51.780331 -31.377523 8.0631952 6
51.812691 -34.862335 8.0954018 8
51.810158 -31.395597 7.638598 6
51.805527 -34.857517 7.6522961 5
51.893612 -37.062881 7.5897732 11
51.769115 -33.381805 7.1137943 6
51.848045 -37.030338 7.1332474 7
51.886383 -33.45742 6.6943431 7
51.816013 -37.007462 6.6799583 6
51.790539 -33.395618 6.2478733 5
51.778118 -36.980396 6.2271748 6
51.79575 -33.398979 5.8149662 5
51.886726 -37.057964 5.7920103 6
51.795055 -33.398529 5.3819289 4
51.811264 -37.00407 5.3365779 7
49.476318 -31.903362 4.7279196 1
49.80859 -35.573742 4.7010732 1
49.744198 -32.076096 4.3386717 1
49.730125 -35.5177 4.2655735 2
49.557076 -31.955435 3.9094472 2
51.370007 -31.128878 3.7721868 17
51.405869 -34.588608 3.6744385 7
51.367329 -31.127256 3.3520198 17
51.376152 -34.568611 3.2395065 9
51.358723 -31.12204 2.9318848 19
51.357166 -34.555836 2.8059769 16
51.340763 -31.111156 2.5117185 16
51.37545 -34.568138 2.374763 12
32.407242 -19.637939 1.3210276 43
51.374668 -34.567612 1.9427508 9
32.431423 -19.652594 1.057529 86
51.454319 -34.621204 1.5133069 2
32.447201 -19.662155 0.79353315 8
49.381317 -33.226379 1.037446 1
32.464825 -19.672834 0.52938735 4
48.48016 -32.620033 0.61129183 18
48.460033 -34.610592 0.4155044 24
48.408298 -31.21468 0.20117933 13
48.571888 -34.690475 0.00052901474 13
48.50243 -31.275379 -0.20054752 10
38.672337 -27.620131 -0.33070824 4
48.476543 -31.258686 -0.60236335 0
38.610939 -27.576279 -0.66081893 6
0 -0 -0 0
38.687611 -27.631039 -0.99348778 6
20.476799 -13.203867 -0.5940823 15
32.238537 -23.025051 -1.1040785 0
20.405622 -13.15797 -0.76132518 15
31.984261 -22.843445 -1.3694994 2
20.414106 -13.163442 -0.93109393 15
0 -0 -0 0
20.418232 -13.166102 -1.1008593 14
10.828017 -6.5614948 -0.617899 53
15.162309 -10.202008 -0.95571709 1
10.844566 -6.5715232 -0.70743752 47
13.887584 -9.344306 -0.99237227 3
10.829844 -6.5626016 -0.79502845 42
13.235782 -8.9057388 -1.0573901 5
10.83167 -6.5637078 -0.88379759 48
13.199558 -8.8813658 -1.1658878 28
10.843194 -6.5706916 -0.97355378 30
13.192497 -8.8766146 -1.2767098 21
10.912127 -6.612463 -1.069219 0
13.237697 -8.9070272 -1.3930365 4
10.868014 -6.585732 -1.1541152 3
13.186369 -8.8724909 -1.4992895 4
10.860874 -6.5814052 -1.2426298 4
12.444388 -8.3732471 -1.5204365 2
11.735187 -8.3813753 -1.5125952 3
10.510983 -6.7777004 -1.3558863 2
11.710151 -8.3634949 -1.610813 4
10.516146 -6.7810297 -1.4448308 2
11.190039 -7.9920259 -1.6363581 2
10.490746 -6.7646513 -1.5295568 2
10.644393 -7.6023207 -1.6490848 2
10.61822 -6.8468499 -1.6375741 2
10.105626 -7.2175288 -1.6535978 1
10.175379 -6.561296 -1.6551343 2
9.5770206 -6.8399944 -1.6506355 1
9.7195578 -6.2673736 -1.663157 2
9.1101513 -6.5065517 -1.6497861 2
9.3206673 -6.0101604 -1.6738539 2
8.7724533 -6.2653646 -1.665455 3
7.2286959 -4.6612139 -1.3595281 14
6.7676935 -4.1010451 -1.2790666 9
6.8858724 -4.6331816 -1.3711764 25
6.6047397 -4.0022993 -1.3035477 32
6.6488466 -4.4736981 -1.3814065 28
6.4620457 -3.9158301 -1.3295965 27
6.1703305 -4.1517267 -1.3354108 13
6.2958131 -3.8150978 -1.3483404 46
6.1070013 -4.1091156 -1.3747178 18
0 -0 -0 0
0 -0 -0 0
0 -0 -0 0
0 -0 -0 0
0 -0 -0 0
0 -0 -0 0
0 -0 -0 0
0 -0 -0 0
51.551975 -36.955032 14.847883 4
51.435379 -33.293945 14.117581 12
51.609444 -36.996227 14.398496 11
51.018547 -33.024132 13.557946 4
51.076866 -36.614449 13.790236 6
51.030968 -33.032169 13.117291 5
51.045601 -36.592037 13.3238 9
51.020985 -33.025711 12.672191 3
51.116619 -36.642948 12.885062 10
50.988525 -33.0047 12.223161 5
51.089481 -36.623489 12.422489 9
51.065388 -33.054451 11.801144 5
51.152206 -36.668457 11.982663 18
51.063854 -33.053459 11.361595 5
51.154869 -36.670364 11.529432 10
51.029919 -33.03149 10.916281 5
51.022133 -31.040051 10.510319 26
51.053715 -34.481358 10.620909 19
50.999218 -31.026112 10.077297 35
51.130157 -34.53299 10.194654 16
51.047848 -31.055695 9.6592016 11
51.0961 -34.509987 9.7470217 6
51.549896 -31.361124 9.3232603 6
51.711624 -34.925705 9.4192638 7
51.779942 -31.501076 8.9329376 7
51.797565 -34.983749 8.9899426 8
51.770947 -31.495604 8.5004158 6
51.713566 -34.927017 8.5319977 6
51.799965 -31.513254 8.0748119 7
51.771439 -34.966106 8.0984869 10
51.81287 -31.521109 7.6471043 6
51.797203 -34.983505 7.6600809 5
51.848164 -37.167355 7.5926099 9
51.827473 -33.547749 7.1298556 6
51.780052 -37.118526 7.1328025 7
51.801159 -33.530712 6.6908941 5
51.815948 -37.14426 6.6883044 6
51.715424 -33.475216 6.2458558 4
51.80727 -37.138039 6.2384729 7
51.723957 -33.48074 5.8134637 5
51.838104 -37.160141 5.7938194 6
51.733292 -33.486782 5.3815813 4
51.795147 -37.129349 5.3415895 7
49.648121 -32.137058 4.7496939 1
49.545406 -35.516621 4.6820812 1
49.691444 -32.1651 4.3389645 1
49.674496 -35.609161 4.2661309 1
49.615101 -32.115685 3.9184439 2
51.342838 -31.235155 3.7741926 17
51.484352 -34.772209 3.6843839 7
51.34359 -31.235615 3.3540261 15
51.371967 -34.696304 3.2430589 17
51.35548 -31.242847 2.9348106 22
51.366264 -34.692451 2.8097806 19
51.3717 -31.252714 2.5158987 14
51.358055 -34.686909 2.3767557 10
32.420704 -19.723604 1.3229787 40
51.459984 -34.755749 1.94827 7
32.458534 -19.746618 1.0595361 104
51.453419 -34.751316 1.5150633 5
32.515305 -19.781155 0.79604244 2
51.437717 -34.740711 1.0819221 10
51.479988 -31.318594 0.84034872 2
48.442993 -32.718094 0.61154288 15
48.50354 -34.76976 0.41639748 18
48.404068 -31.331789 0.2013889 15
48.553482 -34.805561 0.00052947568 12
48.491379 -31.388304 -0.20072821 9
38.149399 -27.347395 -0.3266443 3
48.660267 -31.497625 -0.60532904 1
38.533455 -27.622705 -0.6603176 10
0 -0 -0 0
38.665291 -27.717211 -0.99415636 6
20.457062 -13.241786 -0.59417981 14
0 -0 -0 0
20.43631 -13.228354 -0.763331 18
31.859837 -22.838722 -1.3658779 1
20.40115 -13.205594 -0.93155354 13
0 -0 -0 0
20.378431 -13.190889 -1.099954 12
10.830194 -6.5887041 -0.61867899 43
15.041849 -10.15917 -0.94924122 2
10.809188 -6.5759249 -0.70587784 48
13.762044 -9.2947979 -0.98456019 3
10.818365 -6.5815082 -0.79502845 50
13.220205 -8.9288435 -1.0573901 6
10.827006 -6.5867658 -0.88435453 44
13.160883 -8.8887777 -1.1638414 33
10.811257 -6.5771847 -0.97171634 31
13.16706 -8.8929501 -1.2757493 13
10.829048 -6.5880079 -1.0622045 2
13.232024 -8.9368258 -1.39408 5
10.846285 -6.5984941 -1.1530299 4
13.101548 -8.8487034 -1.4914005 5
10.883372 -6.6210566 -1.2465252 3
12.406658 -8.3793793 -1.5176127 2
11.707596 -8.3925896 -1.5109261 3
10.51582 -6.8068538 -1.358042 2
11.650293 -8.351512 -1.6045834 4
10.574336 -6.8447318 -1.4544661 2
11.172833 -8.0092449 -1.6358856 2
10.498911 -6.7959094 -1.5324758 1
10.631097 -7.6209016 -1.6490848 2
10.619565 -6.8740077 -1.6396307 2
10.076891 -7.2236185 -1.6509581 1
10.17721 -6.5876732 -1.6573013 2
9.5811567 -6.8682518 -1.6534134 1
9.6919765 -6.2735834 -1.66031 2
9.0762577 -6.5063152 -1.6457039 3
9.3001947 -6.0199842 -1.6720632 2
8.7293673 -6.2576461 -1.6593478 2
7.2072763 -4.6652451 -1.35703 4
6.7841344 -4.1272259 -1.2835344 9
6.8581467 -4.6319489 -1.3672643 16
6.6381745 -4.0384293 -1.3115368 32
6.6638889 -4.5007486 -1.3861629 27
6.4350019 -3.9148262 -1.3254372 21
6.1956954 -4.1845341 -1.3424802 13
6.3093081 -3.8383586 -1.3526642 46
6.0965562 -4.1175756 -1.3739835 18
6.1265378 -3.7271676 -1.3651947 31
0 -0 -0 0
5.8467126 -3.556932 -1.3523194 38
0 -0 -0 0
0 -0 -0 0
0 -0 -0 0
5.5124688 -3.3535898 -1.3687023 24
0 -0 -0 0
51.601166 -37.126907 14.880706 4
51.357536 -33.370995 14.112193 11
51.566914 -37.102264 14.404688 11
51.000072 -33.138721 13.568398 4
51.041382 -36.724144 13.797952 3
51.045326 -33.168125 13.135853 5
51.064186 -36.740555 13.345382 12
51.035461 -33.161716 12.690153 3
51.116158 -36.777946 12.901118 10
51.052464 -33.172764 12.252358 10
51.124176 -36.783718 12.446529 9
51.195259 -33.265549 11.844566 15
51.171009 -36.817413 12.002113 18
51.052204 -33.172596 11.371877 5
51.141842 -36.796429 11.540964 12
51.077789 -33.18922 10.938906 10
51.004818 -31.151709 10.517944 26
51.074986 -34.625782 10.637897 19
51.005535 -31.152147 10.089281 35
51.105701 -34.646603 10.201828 16
51.033962 -31.16951 9.6668615 11
51.130589 -34.663475 9.7651348 9
51.629986 -31.533535 9.3476925 6
51.74876 -35.082561 9.4371748 11
51.76199 -31.614159 8.939353 5
51.801929 -35.118607 9.0013313 9
51.827412 -31.654116 8.5187521 7
51.750893 -35.084007 8.5482531 6
51.785446 -31.628485 8.0811481 7
51.756256 -35.087643 8.1056862 10
51.815311 -31.646725 7.6556115 6
51.788605 -35.109573 7.6678658 6
51.783169 -37.257858 7.5926099 7
51.765469 -33.636059 7.1293969 5
51.792583 -37.264633 7.1434841 7
51.802532 -33.660141 6.6986551 5
51.912457 -37.350883 6.7091718 8
51.780346 -33.645725 6.2607846 5
51.829578 -37.291252 6.2489929 8
51.829025 -33.677357 5.8318748 6
51.853954 -37.308792 5.8028655 8
51.811718 -33.666111 5.3958483 5
51.74963 -37.23373 5.3435941 7
49.665466 -32.271523 4.7567382 1
49.862068 -35.875633 4.7179208 1
49.728851 -32.31271 4.3471522 1
49.800087 -35.831039 4.2822852 2
49.562279 -32.204475 3.9187088 3
51.352932 -31.364323 3.7789559 14
51.440067 -34.873283 3.6855681 11
51.35371 -31.364798 3.3582609 15
51.403866 -34.848743 3.2489102 21
51.358791 -31.367903 2.9381266 18
51.358513 -34.817997 2.8126788 18
51.340912 -31.356981 2.5170693 17
51.393337 -34.841606 2.3812013 13
32.416908 -19.798954 1.3242329 35
51.346256 -34.809689 1.946263 5
32.444469 -19.815786 1.0602052 125
51.442287 -34.87479 1.5165268 8
51.360939 -31.369213 1.2587625 14
51.357098 -34.817036 1.0815037 11
48.892517 -29.861601 0.79896158 4
48.498341 -32.878971 0.61296552 14
48.553127 -34.933853 0.41734639 21
48.4566 -31.486031 0.20183595 17
48.564045 -34.941708 0.00053025561 12
48.694744 -31.64077 -0.2017985 8
37.900276 -27.269154 -0.32491857 10
48.853371 -31.743843 -0.60842001 1
38.235161 -27.510103 -0.65602839 6
0 -0 -0 0
20.386148 -14.667784 -0.52482367 0
20.454021 -13.290571 -0.59476483 13
20.43786 -14.704989 -0.70169383 0
20.413174 -13.26403 -0.763331 16
20.394457 -14.673761 -0.87543774 0
20.398163 -13.254276 -0.93247288 12
20.359816 -14.648836 -1.0489721 0
20.465933 -13.298311 -1.105929 6
10.805029 -6.5992808 -0.617899 50
15.043919 -10.198876 -0.95049465 5
10.801093 -6.5968771 -0.70610064 49
13.567316 -9.1978283 -0.97177684 3
10.813666 -6.6045566 -0.79552978 48
13.201286 -8.9496822 -1.0571256 8
10.808674 -6.6015067 -0.88379759 50
13.132131 -8.9027977 -1.162672 60
10.792945 -6.5919003 -0.97110385 17
13.161408 -8.9226465 -1.2767098 12
10.793712 -6.5923686 -1.0598663 1
13.2032 -8.9509792 -1.3926884 7
10.76335 -6.5738244 -1.1454322 2
13.099257 -8.8805122 -1.4929031 4
10.875188 -6.6421309 -1.2469146 2
12.382122 -8.3943367 -1.5164025 2
11.667085 -8.3944378 -1.507588 3
10.520587 -6.8360453 -1.3601975 0
11.626007 -8.3648834 -1.6032484 4
10.632337 -6.9086576 -1.4641013 0
11.155602 -8.0264282 -1.6354129 1
0 -0 -0 0
10.61777 -7.6394587 -1.6490848 2
10.624174 -6.9033537 -1.6422014 2
10.051384 -7.2319455 -1.648846 1
10.149072 -6.5946426 -1.6545924 2
9.5852222 -6.8965435 -1.6561913 3
9.6843243 -6.2926602 -1.6608795 2
9.0905771 -6.540648 -1.6503692 3
9.2830324 -6.0319095 -1.6708692 2
8.7087965 -6.2659574 -1.6575155 2
7.2223077 -4.6928959 -1.3614016 4
6.8005042 -4.1534767 -1.2880021 9
6.8761787 -4.6616378 -1.3724805 16
6.6715031 -4.074688 -1.3195258 27
6.6886449 -4.5345006 -1.3929578 27
6.4382401 -3.9322202 -1.3275169 21
6.2209649 -4.2174416 -1.3495497 9
6.3260984 -3.8637285 -1.3577087 38
6.0861006 -4.1260118 -1.3732492 27
6.1334319 -3.7460554 -1.3681868 31
0 -0 -0 0
0 -0 -0 0
0 -0 -0 0
0 -0 -0 0
0 -0 -0 0
0 -0 -0 0
0 -0 -0 0
51.649902 -37.299068 14.913527 5
51.325287 -33.477684 14.119378 11
51.527325 -37.210552 14.411763 11
50.984619 -33.255478 13.57972 10
0 -0 0 0
51.062634 -33.306366 13.155258 14
51.15855 -36.944237 13.386887 12
51.049614 -33.297874 12.708115 15
51.140793 -36.931416 12.923597 10
51.050282 -33.298306 12.265775 10
51.15847 -36.944183 12.47057 13
51.133785 -33.352776 11.843804 15
51.189449 -36.966553 12.021565 14
51.040291 -33.291794 11.382158 14
51.134907 -36.927166 11.553937 12
51.056011 -33.302044 10.946682 10
50.993988 -31.267523 10.526958 26
51.095894 -34.770382 10.654886 22
51.014935 -31.280365 10.101933 35
51.08099 -34.760239 10.209001 18
51.023201 -31.285435 9.6751595 16
51.099361 -34.772739 9.7707558 9
51.709629 -31.706324 9.3721247 7
51.690666 -35.175121 9.4377718 11
51.774166 -31.745895 8.9510174 5
51.766689 -35.226852 9.005887 9
51.782173 -31.750807 8.5204191 7
51.7911 -35.243465 8.5650511 14
51.774067 -31.745836 8.0880136 7
51.74408 -35.211468 8.1133995 13
51.810707 -31.768303 7.6631174 6
51.789562 -35.242416 7.6771107 6
51.859688 -37.450565 7.6134095 9
51.839767 -33.813263 7.1477528 6
51.753193 -37.373661 7.1470442 7
51.840256 -33.81358 6.7111602 6
51.743931 -37.366974 6.6958175 7
51.858162 -33.82526 6.2773271 5
51.803093 -37.409698 6.2536683 8
51.810146 -33.793941 5.8363838 5
51.862991 -37.452953 5.8111887 8
51.729473 -33.741322 5.3934126 5
51.910713 -37.487415 5.366981 8
49.475441 -32.271095 4.7439299 1
49.893089 -36.030388 4.7268038 1
49.819351 -32.495415 4.3600187 1
49.850647 -35.999737 4.2920332 1
51.331207 -33.481548 4.0631895 4
51.321896 -31.468582 3.7807109 16
51.365868 -34.954098 3.6846209 18
51.404392 -31.519165 3.3651702 16
51.359428 -34.949715 3.2499552 20
51.337986 -31.478447 2.9400771 18
51.380203 -34.963852 2.8172073 19
51.292873 -31.450788 2.5174038 15
51.39188 -34.971798 2.3839602 9
32.409542 -19.872265 1.3253479 34
51.490307 -35.038776 1.9540401 7
32.43026 -19.884968 1.0608742 116
51.447414 -35.00959 1.5184784 11
51.394711 -31.513229 1.2609372 16
51.39209 -34.971943 1.0835254 14
48.622063 -29.81315 0.7953918 2
48.493744 -32.999638 0.61363506 12
48.547153 -35.058414 0.41782084 18
48.428333 -31.588104 0.20194772 21
48.609951 -35.103764 0.00053142552 9
48.672905 -31.747629 -0.2019375 9
37.79097 -27.290817 -0.3243897 17
48.519791 -31.647758 -0.60495311 0
38.011951 -27.450401 -0.65302032 6
0 -0 -0 0
20.415613 -14.743173 -0.52624434 3
20.454222 -13.341571 -0.59544736 15
20.382971 -14.7196 -0.70069093 1
20.426807 -13.323689 -0.76470995 15
20.329906 -14.681278 -0.87376624 2
20.415155 -13.31609 -0.93431145 11
16.329565 -11.792425 -0.84238678 1
20.482836 -13.360235 -1.1081017 1
10.810516 -6.6285863 -0.61887395 41
14.979847 -10.193676 -0.94756997 7
10.792959 -6.6178212 -0.7063235 50
13.604046 -9.2574539 -0.97556442 3
10.802114 -6.6234345 -0.79552978 52
13.162536 -8.9570093 -1.0552738 8
10.790323 -6.6162047 -0.8832407 49
13.093472 -8.9100122 -1.1606256 77
10.761014 -6.5982337 -0.96926636 18
13.099654 -8.9142189 -1.2722279 26
10.792376 -6.6174631 -1.0608684 1
13.177663 -8.9673033 -1.3916447 6
10.758643 -6.5967798 -1.1461558 4
13.057386 -8.8854561 -1.4898978 5
10.873752 -6.6673594 -1.2480832 2
12.327958 -8.3890848 -1.5115616 2
11.626603 -8.3961725 -1.5042499 3
12.753581 -8.3187132 -1.6507754 0
11.604934 -8.3805237 -1.6023585 5
0 -0 -0 0
11.138346 -8.0435772 -1.6349403 1
0 -0 -0 0
10.578671 -7.6394067 -1.6450822 2
10.642002 -6.9414043 -1.6468289 2
10.04838 -7.2564554 -1.65043 1
10.12094 -6.6015344 -1.6518836 2
9.5699501 -6.9109569 -1.6556357 3
9.6766338 -6.311729 -1.6614488 4
9.1080132 -6.5773683 -1.6556177 3
9.2724819 -6.0481148 -1.6708692 2
8.6914291 -6.2765312 -1.656294 2
7.2372642 -4.7206135 -1.365773 5
6.7898731 -4.1632853 -1.2873639 9
6.8941269 -4.6914029 -1.3776965 14
6.6576509 -4.0822115 -1.3181944 27
6.7133026 -4.5683532 -1.3997527 30
6.4447961 -3.9516973 -1.3302898 17
6.2754316 -4.2703853 -1.3629814 9
6.3059235 -3.8665459 -1.3548262 38
6.0821347 -4.1388483 -1.3739835 27
6.1402783 -3.7649789 -1.3711791 31
0 -0 -0 0
5.8074884 -3.5609252 -1.3461161 38
0 -0 -0 0
0 -0 -0 0
0 -0 -0 0
5.4573541 -3.3462365 -1.3579119 19
0 -0 -0 0
51.619362 -37.414371 14.923554 5
51.292824 -33.584366 14.126563 12
51.575962 -37.382915 14.443607 11
51.047302 -33.423611 13.611944 10
0 -0 0 0
51.105789 -33.461903 13.181414 14
51.25235 -37.148357 13.428391 11
51.066727 -33.436329 12.726893 15
51.168221 -37.087379 12.946879 9
51.051094 -33.42609 12.279979 15
51.138344 -37.065723 12.481426 13
51.075451 -33.442039 11.843804 18
51.169346 -37.088192 12.03204 14
51.084042 -33.447662 11.404926 14
51.130856 -37.060295 11.56763 14
51.037292 -33.417053 10.955167 16
50.98291 -31.383392 10.535971 31
51.087162 -34.895149 10.66576 22
51.017319 -31.404573 10.113252 35
51.085373 -34.893929 10.222042 18
50.99202 -31.389 9.6796274 16
51.071171 -34.884228 9.7770014 8
51.610405 -31.769659 9.3641844 7
51.635685 -35.269821 9.4389658 10
51.789406 -31.879845 8.9632654 6
51.734509 -35.337322 9.0110121 10
51.736755 -31.847435 8.5220861 6
51.758915 -35.353992 8.5699272 14
51.71516 -31.834141 8.0874853 7
51.711979 -35.32193 8.1180277 13
51.809212 -31.892036 7.671124 5
51.790218 -35.375374 7.6863556 11
51.832794 -37.569069 7.6190829 9
51.790604 -33.91029 7.1491294 7
51.810143 -37.55265 7.1639562 7
51.904213 -33.984676 6.7271142 6
51.878292 -37.602043 6.7216926 8
51.739071 -33.876549 6.2700648 5
51.789242 -37.537498 6.259902 9
51.801022 -33.91711 5.84202 5
51.858776 -37.587902 5.8180637 8
51.753807 -33.886196 5.4021125 4
51.864521 -37.592064 5.3689857 9
49.682526 -32.53001 4.7692266 1
49.600807 -35.951298 4.7050552 1
49.799229 -32.606422 4.363235 1
49.936314 -36.194477 4.3048453 1
51.396198 -33.652054 4.0729804 5
51.341644 -31.604218 3.7862267 18
51.347599 -35.07304 3.6876991 15
51.349258 -31.608906 3.3651702 17
51.403854 -35.111465 3.2566421 17
51.388397 -31.632998 2.9461238 19
51.434544 -35.132427 2.8235471 18
51.302528 -31.580139 2.5205808 19
51.409935 -35.11562 2.3876393 10
32.405418 -19.947702 1.3266021 31
51.521465 -35.191799 1.9575522 8
32.443146 -19.970928 1.0624353 97
51.422504 -35.124207 1.5195518 12
51.404297 -31.642784 1.2625265 12
51.377167 -35.093235 1.0845014 20
48.624413 -29.93158 0.79628426 3
48.505386 -33.131664 0.61451375 17
48.485844 -35.143158 0.41782084 16
48.433323 -31.712086 0.20219919 19
48.577709 -35.209743 0.00053174456 8
48.573875 -31.804115 -0.20175681 8
37.762676 -27.370869 -0.32455668 12
48.625061 -31.837627 -0.60695809 0
20.44412 -14.818158 -0.35166061 0
0 -0 -0 0
20.370401 -14.764727 -0.52574289 7
20.467688 -13.401374 -0.59651989 11
20.328091 -14.734059 -0.69968802 1
20.406849 -13.361539 -0.7648353 17
20.291285 -14.707381 -0.87320912 3
20.375145 -13.34078 -0.93354535 6
16.276585 -11.797475 -0.84071541 1
20.462812 -13.398182 -1.1082828 2
10.788714 -6.6411757 -0.61828899 44
14.948826 -10.210814 -0.94673443 8
10.781384 -6.636663 -0.7063235 47
13.373538 -9.1348124 -0.96017712 3
10.783729 -6.6381068 -0.79502845 53
13.140279 -8.9754839 -1.0547447 6
10.782149 -6.6371346 -0.88351917 45
13.091067 -8.9418697 -1.161795 74
10.749473 -6.6170197 -0.96926636 14
13.087357 -8.9393349 -1.272548 29
10.760433 -6.6237669 -1.0588641 2
13.152109 -8.9835644 -1.3906009 6
10.706395 -6.5905027 -1.1418142 3
13.028693 -8.8992653 -1.4883951 7
10.767164 -6.6279101 -1.2371762 2
12.310001 -8.4083614 -1.5111582 2
11.631248 -8.4304762 -1.5067536 3
12.669165 -8.2952318 -1.6417218 2
11.548436 -8.3704538 -1.5965738 5
0 -0 -0 0
11.121063 -8.060688 -1.6344676 2
11.253706 -7.3684492 -1.6482627 1
10.542818 -7.6415682 -1.6415799 2
10.659729 -6.9795389 -1.6514561 2
10.048532 -7.2833037 -1.6525419 1
10.096132 -6.6105194 -1.6497165 2
9.5578642 -6.9276614 -1.6556357 2
9.6523457 -6.3199468 -1.6591713 4
9.1029186 -6.5979114 -1.6567842 3
9.265213 -6.0664682 -1.6714661 2
8.6900549 -6.2986622 -1.6581262 2
7.1926475 -4.7094407 -1.3589036 5
6.7792282 -4.1730685 -1.2867258 8
6.8826637 -4.7012119 -1.3770446 14
6.6471515 -4.0917664 -1.3175286 27
6.7085686 -4.5822964 -1.4004323 30
6.451303 -3.9712086 -1.3330626 17
6.3297324 -4.3235316 -1.3764133 15
6.2857575 -3.8693044 -1.3519436 33
6.0781431 -4.1516833 -1.3747178 17
6.1136155 -3.7633395 -1.3666908 31
0 -0 -0 0
0 -0 -0 0
0 -0 -0 0
0 -0 -0 0
0 -0 -0 0
0 -0 -0 0
0 -0 -0 0
51.588573 -37.529678 14.933583 3
51.413239 -33.791653 14.175961 12
51.6273 -37.557854 14.476335 15
51.109562 -33.59206 13.644169 11
0 -0 0 0
51.151821 -33.619835 13.208412 19
51.212696 -37.256237 13.435031 11
51.086781 -33.577087 12.746489 17
51.135044 -37.199749 12.954906 9
51.064724 -33.562592 12.29734 15
51.121128 -37.189621 12.49306 11
51.082592 -33.574337 11.859041 18
51.148972 -37.209877 12.042513 9
51.127399 -33.603786 11.427693 22
51.148769 -37.209732 11.58637 14
51.028198 -33.538586 10.965772 16
51.0252 -31.532455 10.556076 31
51.081406 -35.022224 10.677312 15
51.022778 -31.530958 10.125237 29
51.089447 -35.02774 10.235085 18
50.963985 -31.494627 9.6847343 12
51.104656 -35.03817 9.7951136 8
51.511116 -31.832741 9.3562441 6
51.678387 -35.431526 9.4580708 10
51.767303 -31.99106 8.9690981 6
51.751076 -35.481361 9.0246782 10
51.79562 -32.00856 8.5409784 6
51.729774 -35.466759 8.575346 10
51.656101 -31.922337 8.086957 6
51.682919 -35.434635 8.1231699 9
